<?xml version="1.0"?>
<opencv_storage>
<Disparity type_id="opencv-matrix">
  <rows>53</rows>
  <cols>620</cols>
  <dt>u</dt>
  <data>
    0 0 0 0 0 0 0 0 0 0 0 0 0 0 0 0 0 0 0 0 0 0 0 0 0 0 0 0 0 0 25 25 25 26 28 28 29 30 31 32 33 35 35 36 37 38 39 40 41 42 43 29 29 28 28 28 28 28 28 28 28 28 28 28 28 59 60 61 51 53 54 55 55 30 31 32 32 32 31 32 32 33 33 33 0 0 0 0 0 0 79 47 47 47 71 71 0 0 0 0 0 0 0 0 53 53 53 53 53 54 44 45 29 30 57 57 58 58 58 58 58 58 0 0 0 0 0 0 0 28 61 61 60 60 21 21 21 0 0 0 17 18 18 18 18 18 18 62 62 62 62 62 63 63 63 63 63 62 62 37 37 38 17 18 20 42 44 46 49 86 64 64 64 64 64 64 59 56 56 56 37 38 37 38 38 39 39 22 23 0 0 0 25 65 65 65 65 66 66 66 66 66 66 66 66 65 65 0 42 0 0 0 0 0 0 17 18 19 21 67 67 67 67 67 67 67 67 67 67 67 66 66 35 35 36 38 39 40 41 41 42 43 43 67 67 67 67 67 67 67 67 67 68 68 68 68 68 68 68 68 68 68 68 67 67 68 69 70 70 69 66 67 67 68 69 68 68 68 68 68 68 68 68 68 68 69 69 69 69 68 69 70 71 72 74 64 67 68 67 68 68 68 68 68 68 68 68 68 68 68 68 68 68 68 68 68 68 68 68 68 68 69 70 68 68 68 68 68 68 68 71 69 68 68 68 68 68 68 68 68 68 68 68 68 68 68 68 68 68 68 68 68 68 68 68 68 68 68 67 67 67 67 67 68 67 67 67 67 67 67 67 67 67 67 67 67 67 67 67 67 67 67 67 67 67 67 66 66 67 67 67 67 66 66 66 66 66 66 66 66 66 66 66 66 66 66 66 57 62 65 65 66 67 68 68 51 52 65 65 65 65 65 65 65 65 65 65 65 65 62 64 64 65 66 67 67 64 64 64 64 64 64 64 64 64 64 64 63 63 63 63 63 63 63 63 63 61 57 57 58 60 61 61 62 62 62 62 62 62 62 62 62 62 56 57 58 30 31 31 32 60 60 60 60 60 60 59 59 59 59 59 59 59 60 61 57 57 57 57 57 57 58 69 54 52 52 52 52 52 52 30 30 30 30 30 30 30 30 30 30 30 30 45 45 46 46 32 34 30 30 30 30 30 30 30 30 30 30 30 30 30 30 30 30 30 30 30 30 30 30 31 31 32 33 34 35 36 37 38 38 39 39 38 39 40 40 42 30 30 30 30 30 31 54 49 50 51 50 30 30 30 30 30 0 0 0 0 31 42 53 53 31 31 31 31 49 38 39 40 41 42 43 44 45 46 47 41 42 43 51 31 31 31 31 31 31 31 31 31 31
    0 0 0 0 0 0 0 0 0 0 0 0 0 0 0 0 0 0 0 0 0 0 0 0 0 0 0 0 0 0 0 26 26 27 27 28 29 29 31 32 33 34 35 36 37 38 39 40 40 42 43 44 45 29 29 29 28 28 28 28 28 28 28 28 28 60 60 60 53 54 55 55 29 29 28 28 28 28 29 30 31 32 32 32 0 0 0 0 0 51 75 48 48 51 73 71 70 0 0 0 0 0 0 0 0 53 53 53 53 54 44 44 0 31 57 57 58 58 58 58 58 0 0 0 0 0 0 0 0 28 61 61 60 60 21 21 0 0 0 0 17 18 18 18 18 18 18 62 62 62 62 62 63 63 63 63 63 62 62 37 0 0 17 18 19 20 21 22 49 65 65 64 64 64 64 64 64 64 56 56 35 36 37 38 38 39 39 39 23 0 0 0 0 65 65 65 65 65 66 66 66 66 66 66 66 65 65 42 0 0 0 0 0 0 0 17 19 19 21 67 67 67 67 67 67 67 67 67 67 67 66 66 66 35 36 38 38 40 41 41 42 68 67 67 67 67 67 67 67 67 67 67 68 68 68 68 68 68 68 68 68 68 68 67 67 68 69 70 70 69 66 67 67 68 69 68 68 68 68 68 68 68 68 68 68 68 68 68 68 68 69 70 71 65 65 64 67 68 67 68 68 68 68 68 68 68 68 68 68 68 68 68 68 68 68 68 68 68 68 68 62 69 70 68 68 68 68 68 68 68 68 68 68 68 68 68 68 68 68 68 68 68 68 68 68 68 68 68 68 68 68 68 68 68 68 68 68 68 68 67 67 67 68 68 67 67 67 67 67 67 67 67 67 67 67 67 67 67 67 67 67 67 67 67 67 67 66 66 67 67 67 66 66 66 66 66 66 66 66 66 66 66 66 66 66 66 66 57 66 59 66 66 67 67 68 51 51 65 65 65 65 65 65 65 65 65 65 65 65 60 61 60 65 64 64 65 64 64 64 64 64 64 64 64 64 64 64 63 63 63 63 63 63 63 63 63 61 56 57 58 59 61 60 61 52 62 62 62 62 62 62 62 62 56 56 57 58 31 31 32 60 60 60 60 60 60 59 59 59 59 59 59 59 60 61 57 57 57 57 57 57 68 63 54 52 52 52 52 52 52 33 30 30 30 30 30 30 30 30 30 30 30 45 44 45 46 47 34 48 30 30 30 30 30 30 30 30 30 30 30 30 30 30 30 30 30 30 30 30 30 30 31 31 32 33 34 35 36 37 38 39 40 41 40 40 41 42 30 30 30 30 30 31 49 50 50 50 50 30 30 30 30 30 0 0 0 0 31 43 42 53 31 31 31 31 49 38 39 40 41 42 43 44 45 46 47 48 42 41 51 31 31 31 31 31 31 31 31 31 31
    0 0 0 0 0 0 0 0 0 0 0 0 0 0 0 0 0 0 0 0 0 0 0 0 0 0 0 0 0 0 0 26 27 28 28 28 28 29 31 32 33 34 35 36 37 38 39 39 39 40 43 44 44 46 47 29 28 28 28 28 28 28 28 28 28 60 60 60 59 54 28 28 28 28 28 28 28 28 29 30 31 31 0 0 0 0 0 0 0 51 49 50 71 71 74 74 69 69 0 0 0 0 0 0 0 53 53 53 53 54 44 44 0 31 57 58 58 58 58 58 58 58 0 0 0 0 0 0 0 27 61 61 60 60 21 21 0 0 0 0 17 18 0 0 0 0 22 62 62 62 62 62 63 63 63 63 63 62 62 37 0 0 17 18 19 20 21 22 67 67 65 65 64 64 64 64 64 63 63 56 35 36 37 38 38 39 39 39 23 23 0 0 65 65 65 65 65 65 65 66 66 66 66 66 66 65 65 35 35 36 0 0 0 0 0 17 18 19 45 67 67 67 67 67 67 67 67 67 67 66 66 66 35 35 36 37 38 39 40 41 67 67 67 67 67 67 67 67 67 67 67 67 68 68 68 68 68 68 68 68 68 68 68 67 67 67 69 70 70 69 69 67 68 68 68 68 68 68 68 68 68 68 68 68 68 68 68 68 68 61 61 64 64 65 66 67 68 68 68 68 68 68 68 68 68 68 68 68 68 68 68 68 68 68 68 68 68 68 68 68 68 69 68 63 67 67 67 67 68 68 68 68 68 68 68 68 68 68 68 68 68 68 68 68 68 68 68 68 68 68 68 68 68 68 68 68 68 68 68 68 68 68 68 68 67 67 67 67 67 67 67 67 67 67 67 67 67 67 67 67 67 67 67 67 40 40 66 67 67 67 67 66 66 66 66 66 66 66 66 66 66 66 66 66 66 66 66 57 58 59 66 66 62 63 64 65 65 65 65 65 65 65 65 65 65 65 65 65 65 60 61 60 63 64 64 65 65 64 64 64 64 64 64 64 64 64 64 63 63 63 63 63 63 63 63 63 61 61 62 62 62 59 60 61 52 61 62 62 62 62 62 62 62 56 56 57 58 31 32 32 60 60 60 60 60 60 59 59 59 59 59 59 59 60 61 62 57 57 57 58 67 68 63 54 52 52 52 52 52 52 33 34 30 30 30 30 30 30 30 30 30 30 30 46 44 45 46 47 47 30 30 30 30 30 30 30 30 30 30 30 30 30 30 30 30 30 30 30 30 30 30 31 31 32 33 34 35 36 37 37 37 37 38 39 40 41 42 30 30 30 30 30 31 31 49 49 46 41 30 30 30 30 30 31 31 31 31 31 43 42 30 31 31 31 31 49 38 39 40 41 42 43 44 45 46 47 48 49 50 51 31 31 31 31 31 31 31 31 31 31
    0 0 0 0 0 0 0 0 0 0 0 0 0 0 0 0 0 0 0 0 0 0 0 0 0 0 0 0 0 0 0 0 27 28 28 28 28 29 29 32 32 32 34 36 36 37 38 38 39 40 42 43 44 45 45 47 29 29 28 28 28 28 28 28 28 28 57 57 58 28 28 28 28 28 28 28 28 28 28 29 30 31 0 0 0 0 0 0 0 0 0 51 64 71 71 74 68 68 68 0 0 0 0 0 0 0 53 53 53 54 44 33 0 0 0 58 58 58 58 58 58 58 45 0 0 0 0 0 0 27 61 61 60 60 59 59 0 0 0 0 17 18 0 0 0 0 22 62 62 62 62 63 63 63 63 63 62 62 58 0 0 0 0 0 19 20 21 21 23 67 65 65 65 65 64 64 64 64 79 56 32 36 36 37 38 39 39 39 23 23 0 0 65 65 65 65 65 65 65 66 66 66 66 66 66 65 65 35 35 36 0 0 0 0 0 0 45 45 45 67 67 67 67 67 67 67 67 67 67 66 66 36 35 35 36 37 38 39 40 67 67 67 67 67 67 67 67 67 67 67 67 67 67 68 68 68 68 68 68 68 68 68 68 67 67 67 69 70 70 67 67 68 68 68 68 68 68 68 68 68 68 68 68 68 68 68 68 68 68 68 68 64 65 65 66 67 67 68 68 68 68 68 68 68 68 68 68 68 68 68 68 68 68 68 68 68 68 68 68 68 68 69 68 68 67 67 67 67 68 68 68 68 68 68 68 68 68 68 68 68 68 68 68 68 68 68 68 68 68 68 68 68 68 68 68 68 68 68 68 68 68 68 68 68 67 67 67 67 67 67 67 67 67 67 67 67 67 67 67 67 67 67 67 67 37 39 66 66 67 67 67 66 66 66 66 66 66 66 66 66 66 66 66 66 66 66 66 57 57 58 66 66 67 63 64 64 65 65 65 65 65 65 65 65 65 65 65 65 65 59 60 60 63 64 64 65 65 64 64 64 64 64 64 64 64 64 64 63 63 63 63 63 63 63 63 59 61 61 62 62 62 62 60 61 52 61 62 62 62 62 62 62 56 57 57 57 57 58 58 59 45 60 60 60 60 60 60 59 59 59 59 59 60 60 61 62 63 64 65 66 68 68 53 54 52 52 52 52 52 32 33 34 35 46 30 30 30 30 30 30 30 30 30 30 46 44 45 46 47 46 30 30 30 30 30 30 30 30 30 30 30 30 30 30 30 30 30 30 30 30 30 31 31 31 30 31 31 31 32 33 34 35 36 37 38 39 40 41 30 30 30 30 31 31 31 45 46 41 41 30 30 30 30 31 31 31 31 31 43 43 43 45 46 47 48 37 38 39 40 41 42 43 44 45 46 47 48 49 50 50 31 31 31 31 31 31 31 31 31 31
    0 0 0 0 0 0 0 0 0 0 0 0 0 0 0 0 0 0 0 0 0 0 0 0 0 0 0 0 0 0 0 0 27 28 28 27 28 28 29 30 31 32 33 34 36 37 38 38 39 40 42 43 44 44 45 46 47 49 28 28 28 28 28 28 28 28 57 29 29 28 28 28 28 28 28 28 28 28 28 29 30 31 0 0 0 0 0 0 0 0 0 55 63 64 71 71 73 73 68 68 0 0 0 0 0 0 53 53 53 54 44 0 0 0 0 58 58 58 58 58 58 46 22 0 0 0 0 0 27 27 25 61 60 60 59 59 0 0 0 0 17 18 0 0 0 0 22 62 62 62 62 63 63 63 63 63 62 62 58 0 0 0 0 0 0 20 21 21 23 24 68 65 65 65 64 64 63 63 79 56 32 35 36 36 37 38 39 39 40 23 24 24 65 65 65 65 65 65 65 66 66 66 66 66 66 65 65 0 0 0 0 0 0 0 0 17 45 46 46 46 67 67 67 67 67 67 67 67 67 66 66 66 60 60 37 38 38 39 67 67 67 67 67 67 67 67 67 67 67 67 67 67 67 68 68 68 68 68 68 68 68 68 68 67 67 67 69 70 69 67 68 68 68 68 68 68 68 68 68 68 68 68 68 68 68 68 68 68 68 68 65 65 65 65 66 67 67 68 68 68 68 68 68 68 68 68 68 68 68 68 68 68 68 68 68 68 68 68 68 68 68 69 69 68 67 67 68 68 68 68 68 68 68 68 68 68 68 68 68 68 68 68 68 68 68 68 68 68 68 68 68 68 68 68 68 68 68 68 68 68 68 69 68 68 68 67 67 67 67 67 67 67 67 67 67 67 67 67 67 67 67 67 67 67 37 38 66 66 67 67 66 66 66 66 66 66 66 66 66 66 66 66 66 66 66 66 66 55 56 66 66 66 66 62 64 64 64 65 65 65 65 65 65 65 65 65 65 65 65 59 59 60 63 63 64 64 65 64 64 64 64 64 64 64 64 64 64 63 63 63 63 63 63 63 63 55 55 55 56 62 62 59 60 61 52 53 61 62 62 62 62 62 56 57 57 57 57 57 58 59 32 60 60 60 60 60 60 60 60 59 59 59 60 60 61 62 63 64 63 66 67 68 51 52 52 52 52 52 52 32 33 34 35 36 30 30 30 30 30 30 30 30 30 30 47 47 46 46 47 48 30 30 30 30 30 30 30 30 30 30 30 30 30 30 30 30 30 30 30 30 30 30 30 30 30 30 30 31 31 32 33 34 35 36 37 38 39 40 41 30 30 31 31 44 44 44 45 41 41 30 30 30 30 31 31 31 31 31 43 43 44 45 46 47 36 37 38 39 40 41 42 43 44 45 46 46 46 47 48 50 31 31 31 31 31 31 31 31 31 31
    0 0 0 0 0 0 0 0 0 0 0 0 0 0 0 0 0 0 0 0 0 0 0 0 0 0 0 0 0 0 0 0 27 28 28 27 0 28 29 29 31 0 32 33 22 22 23 23 28 26 27 28 28 28 29 45 31 33 46 28 28 28 28 28 28 28 28 28 28 28 28 28 28 28 28 28 28 28 29 29 30 31 0 0 0 0 0 0 0 0 0 0 63 87 88 76 76 77 88 0 0 0 0 0 0 0 53 53 53 54 44 0 0 0 0 58 58 58 58 58 46 26 22 0 0 0 0 0 27 27 27 28 28 60 59 36 0 0 0 0 17 0 0 0 0 0 44 62 62 62 62 63 63 63 63 63 62 62 58 0 0 0 0 0 0 0 21 21 22 24 68 65 65 66 64 62 63 63 55 38 32 35 35 36 36 38 39 39 39 22 23 24 23 65 65 65 65 65 65 66 66 66 66 66 65 65 65 0 0 0 0 0 0 0 0 17 18 19 20 21 21 67 67 67 67 67 67 67 67 66 66 66 36 35 37 37 38 67 67 67 67 67 67 67 67 67 67 67 67 67 67 67 67 67 68 67 67 68 68 68 68 68 68 67 67 68 69 70 69 68 68 68 67 68 68 68 68 68 68 68 68 68 68 68 68 68 68 68 68 68 65 66 67 67 67 67 67 71 68 68 68 68 68 68 68 68 68 68 68 68 68 68 68 68 68 68 68 68 68 68 68 68 69 68 67 67 68 68 68 68 68 68 68 68 68 68 68 68 68 68 68 68 68 68 68 68 68 68 68 68 68 68 68 68 68 68 68 68 68 69 70 70 67 67 68 67 67 67 67 67 67 67 67 67 67 67 67 67 67 67 67 35 67 64 37 38 39 66 66 67 66 66 66 66 66 66 66 66 66 66 66 66 66 66 66 66 66 66 66 66 66 66 66 62 64 64 65 65 65 65 65 65 65 65 65 65 65 65 55 58 59 59 63 63 64 64 64 64 64 64 64 64 64 64 64 64 64 63 63 63 63 63 63 63 63 53 54 54 56 57 58 58 59 51 52 53 61 62 62 62 62 56 57 57 57 57 57 57 58 32 44 32 60 60 60 60 60 60 60 60 60 60 41 42 44 45 63 64 48 66 50 50 51 52 52 52 52 52 52 32 33 34 35 30 30 30 30 30 30 30 30 30 30 30 47 47 47 47 47 49 30 30 30 30 30 30 30 30 30 30 30 30 30 30 30 30 30 30 30 30 30 30 30 30 30 30 30 30 31 31 32 33 34 35 36 37 38 39 39 41 42 43 43 44 44 44 37 38 39 39 40 41 41 41 41 41 48 42 42 42 43 44 45 46 40 41 35 36 37 38 39 40 41 42 43 44 45 46 47 47 31 31 31 31 31 31 31 31 31 31
    0 0 0 0 0 0 0 0 0 0 0 0 0 0 0 0 0 0 0 0 0 0 0 0 0 0 0 0 0 0 0 0 27 28 28 0 0 17 18 19 20 21 22 23 24 25 26 27 28 29 30 31 32 33 34 35 36 37 37 28 28 28 28 28 28 28 28 28 28 28 28 28 28 28 28 28 28 28 29 30 31 32 0 0 0 0 0 0 0 0 0 0 87 88 88 78 77 88 88 69 0 0 0 0 0 53 53 53 53 54 45 0 0 0 0 58 0 58 57 57 46 0 22 0 0 0 0 0 0 0 0 0 0 0 0 0 0 0 0 0 17 18 0 0 0 0 44 63 63 63 62 63 63 62 62 62 62 62 34 0 0 0 0 0 0 0 0 21 21 23 45 69 65 67 61 62 63 78 55 55 32 34 35 35 36 37 38 39 21 22 22 48 48 66 65 65 65 65 65 66 66 66 66 66 65 65 65 0 0 0 0 0 0 0 0 0 18 19 20 21 21 0 67 67 67 67 67 67 66 66 66 36 31 32 37 38 38 39 39 40 43 67 67 67 67 67 67 67 67 67 67 67 67 67 67 67 67 68 68 68 68 68 67 67 65 66 68 69 68 68 68 68 69 67 68 68 68 68 68 68 68 68 68 68 68 68 68 68 68 68 68 67 67 68 68 67 71 71 68 68 68 68 68 68 68 68 68 68 68 68 68 68 68 68 68 68 68 68 68 68 68 68 68 66 67 67 68 68 68 68 68 68 68 68 68 68 68 68 68 68 68 68 68 68 68 68 68 68 68 68 68 68 67 68 68 68 68 68 68 69 70 70 67 67 67 67 67 67 67 67 67 67 67 67 67 67 67 67 67 67 67 35 64 63 38 38 38 39 67 67 67 66 66 66 66 66 66 66 66 66 66 66 66 66 66 66 66 66 66 66 66 66 66 62 63 63 65 65 65 65 65 65 65 65 65 65 65 65 54 58 59 60 63 63 63 64 64 64 64 68 64 64 64 64 64 64 64 63 63 63 63 63 63 63 54 53 54 54 55 56 57 58 59 51 52 55 55 55 55 53 55 56 55 56 57 57 57 57 57 32 44 50 60 60 60 60 60 60 60 60 60 61 62 63 64 45 66 67 68 69 50 50 51 52 52 52 52 52 52 32 33 30 30 30 30 30 30 30 30 30 30 30 30 30 47 47 47 48 49 50 51 30 30 30 30 30 30 30 30 30 30 30 30 30 30 30 30 30 30 30 30 30 30 30 30 30 30 30 30 31 31 32 33 34 35 36 37 38 39 40 41 31 31 43 42 43 44 45 43 43 44 45 46 46 47 47 30 31 31 31 31 31 40 40 41 42 43 44 45 37 38 39 40 41 42 43 44 45 46 47 48 49 31 31 31 31 31 31 31 31
    0 0 0 0 0 0 0 0 0 0 0 0 0 0 0 0 0 0 0 0 0 0 0 0 0 0 0 0 0 0 0 0 0 28 28 18 19 20 21 22 23 24 25 26 27 28 28 28 29 29 30 30 30 30 31 33 34 35 37 28 28 28 28 28 28 28 28 28 28 28 28 28 28 28 28 28 28 28 29 66 67 68 68 33 33 33 0 0 0 0 0 0 0 88 88 79 79 87 87 88 0 0 0 56 0 53 53 53 53 54 45 44 0 0 0 0 0 0 0 25 0 0 22 0 0 0 0 0 0 0 0 0 0 0 0 0 0 0 0 0 0 0 0 0 0 0 20 63 63 63 62 62 62 62 62 62 62 17 0 0 0 0 0 0 0 17 17 0 18 21 23 0 0 76 93 61 63 52 52 54 32 33 33 33 36 37 38 39 21 22 0 17 22 66 66 66 66 65 66 66 66 66 66 66 65 65 65 0 0 0 0 0 0 0 0 17 18 19 20 21 21 21 67 67 67 67 67 67 66 66 66 36 37 31 31 38 38 38 39 41 44 44 67 67 67 67 67 67 67 67 67 67 67 67 67 67 67 68 68 68 68 68 67 65 65 66 70 68 68 68 68 68 67 67 67 68 68 68 68 68 68 68 68 68 68 68 68 68 68 68 68 68 68 68 68 67 72 72 72 68 68 68 68 68 68 68 68 68 68 68 68 68 68 68 68 68 68 68 68 68 62 68 68 66 67 67 68 68 68 68 68 68 68 68 68 68 68 68 68 68 68 68 68 68 68 68 68 68 68 68 68 68 67 68 68 68 68 68 68 69 69 70 68 68 68 67 67 67 67 67 67 67 67 67 67 67 32 33 32 67 67 67 68 65 44 67 67 66 66 67 66 66 66 66 66 66 66 66 66 66 66 66 66 66 66 66 66 66 66 66 37 66 60 61 61 62 63 64 65 65 65 65 65 65 65 65 57 60 63 63 64 63 63 63 63 64 64 64 64 64 64 64 64 64 64 64 64 64 63 64 63 63 63 63 54 54 55 53 55 56 57 57 57 56 56 56 55 55 55 55 55 56 55 56 57 56 55 56 57 43 49 50 60 60 60 60 60 60 60 60 60 61 62 63 64 45 66 67 68 69 70 71 51 52 52 52 52 52 52 52 33 30 30 30 30 30 30 30 30 30 30 30 30 30 47 46 47 48 49 50 51 30 30 30 30 30 30 30 30 30 30 30 30 30 30 30 30 30 30 30 30 30 30 30 30 30 30 30 30 30 31 32 33 34 35 35 36 37 38 30 31 31 31 43 42 43 43 44 43 43 44 45 46 47 47 47 30 31 31 31 31 31 40 40 41 42 43 44 45 46 38 39 40 41 42 43 44 45 46 47 48 49 31 31 31 31 31 31 31 31
    0 0 0 0 0 0 0 0 0 0 0 0 0 0 0 0 0 0 0 0 0 0 0 0 0 0 0 0 0 0 0 0 0 28 28 28 23 24 25 23 27 28 29 29 28 28 29 29 29 29 28 28 28 29 29 30 30 29 28 28 28 28 28 28 28 28 28 28 28 28 28 28 28 28 28 28 61 64 65 68 69 68 68 33 33 33 0 0 0 0 0 0 0 88 88 79 85 86 87 88 51 52 53 53 53 53 53 53 53 54 40 41 42 40 0 0 0 0 0 0 0 0 0 23 0 0 0 0 0 0 0 0 0 0 0 0 0 0 0 0 0 0 0 0 0 0 20 63 63 63 62 62 62 62 44 44 62 17 33 0 0 0 0 0 0 17 18 0 18 18 0 0 17 17 52 0 0 52 28 25 29 27 28 29 30 31 39 21 21 0 0 17 48 66 66 66 66 65 66 66 66 66 66 65 65 65 0 0 0 0 0 0 0 0 17 18 19 19 20 21 21 21 0 67 67 67 67 66 66 66 67 36 31 31 31 31 31 38 39 40 44 45 46 67 67 67 67 67 67 67 67 67 67 67 67 67 68 68 68 68 68 68 67 65 65 66 65 65 67 68 68 68 67 67 68 67 68 68 68 68 68 68 68 68 68 68 68 68 68 68 68 68 68 68 68 67 72 72 72 68 68 68 68 68 68 68 68 68 68 68 68 68 68 68 68 68 68 68 68 68 62 63 64 66 67 67 67 68 68 68 68 68 68 68 68 68 68 68 68 68 68 68 68 68 68 68 68 68 68 68 68 68 67 68 68 68 68 68 68 69 69 70 67 67 67 67 67 67 67 67 67 67 67 67 67 67 67 67 39 67 66 67 67 67 67 67 67 67 67 67 66 66 66 66 66 66 66 66 66 66 66 66 66 66 66 66 66 66 66 66 37 43 45 46 47 48 49 50 51 65 65 65 65 65 65 65 65 60 61 63 63 63 63 63 63 64 64 64 64 64 64 64 64 64 64 64 64 64 64 64 64 64 63 52 54 55 56 56 54 55 56 56 56 56 56 56 56 56 56 56 56 56 55 56 56 54 55 56 38 48 49 50 60 60 60 60 60 60 59 60 61 61 62 63 64 65 67 68 68 69 70 71 71 53 52 52 52 52 52 52 30 30 30 30 30 30 30 30 30 30 30 30 30 30 30 46 47 48 49 51 52 53 30 30 30 30 30 30 41 42 43 30 30 30 30 30 30 30 30 30 30 30 30 30 30 30 30 30 30 30 30 31 32 33 34 35 36 37 30 30 31 31 31 31 39 39 40 41 42 43 44 45 46 40 41 30 30 31 31 31 31 31 40 40 41 42 43 44 45 46 38 39 40 41 42 43 44 45 46 47 48 43 31 31 31 31 31 31 31 31
    0 0 0 0 0 0 0 0 0 0 0 0 0 0 0 0 0 0 0 0 0 0 0 0 0 0 0 0 0 0 0 0 0 28 28 28 23 24 25 26 27 28 29 29 29 28 28 35 28 27 27 27 28 28 29 29 30 29 29 28 28 28 28 28 28 28 28 28 28 28 28 28 28 28 28 62 64 64 65 68 68 68 68 33 33 33 0 0 0 0 0 0 0 0 85 84 84 85 86 88 88 89 90 53 53 53 53 53 53 54 40 41 41 41 41 47 0 0 0 0 0 0 0 0 0 0 0 0 0 0 0 0 0 0 0 0 0 0 0 0 0 0 0 0 0 0 0 20 20 63 63 59 59 59 33 33 33 33 0 0 0 0 0 0 0 17 18 18 18 19 19 0 17 18 0 0 0 27 24 25 26 28 28 29 30 31 32 0 0 0 0 0 47 66 66 66 66 66 66 66 66 66 66 65 65 65 0 0 0 0 0 0 0 0 17 17 19 19 20 21 21 21 0 0 67 67 67 66 66 34 35 36 34 34 32 32 38 39 39 40 41 45 46 67 67 68 67 67 67 67 67 67 67 67 67 68 68 68 68 68 68 68 67 65 65 66 67 67 67 68 71 72 73 73 74 74 68 68 68 68 68 68 68 68 68 68 68 68 68 68 68 68 68 68 68 67 67 68 68 68 68 68 68 68 68 68 68 68 68 68 68 68 68 68 68 68 68 68 68 68 57 60 60 67 67 67 67 68 68 68 68 68 68 68 68 68 68 68 68 68 68 68 68 68 68 68 68 68 68 68 68 68 68 69 69 69 68 67 68 68 68 68 68 68 68 68 68 67 67 67 67 67 67 67 67 67 67 67 68 66 66 67 67 67 67 67 67 67 67 67 66 66 66 66 66 66 66 66 66 66 66 66 66 66 66 66 66 66 66 66 66 43 43 43 47 48 49 50 51 51 65 65 65 65 65 57 58 60 61 62 63 63 61 58 58 46 64 64 64 64 64 64 64 64 64 64 64 64 64 64 64 54 57 57 58 57 57 56 55 55 56 56 56 56 56 55 55 56 55 55 52 53 53 54 53 54 55 56 50 51 52 53 53 55 56 56 35 36 37 59 61 61 62 63 64 65 66 67 68 69 69 70 72 53 52 52 52 52 52 0 30 30 30 30 30 30 30 30 30 30 30 30 30 30 47 48 47 32 32 51 52 36 30 30 30 30 30 31 40 39 42 43 30 30 30 30 30 30 30 30 30 30 30 30 30 30 30 30 30 30 30 31 32 33 34 35 35 37 30 31 31 31 31 41 39 39 40 41 42 43 44 46 39 40 41 30 30 31 31 31 31 31 41 40 41 42 43 44 45 46 38 39 40 41 42 43 44 45 46 47 43 43 31 31 31 31 31 31 31 39
    0 0 0 0 0 0 0 0 0 0 0 0 0 0 0 0 0 0 0 0 0 0 0 0 0 0 0 0 0 0 0 0 0 28 28 28 28 28 27 27 27 28 29 30 29 33 34 35 0 0 27 27 28 28 28 29 29 29 28 28 28 28 28 28 28 28 28 28 28 28 28 28 28 28 62 63 64 65 65 67 68 68 69 33 33 33 0 0 0 0 0 0 0 49 49 83 84 85 51 52 53 54 54 53 53 53 53 53 53 54 40 41 40 41 42 0 0 0 0 0 0 0 0 0 0 0 0 0 0 0 0 0 0 0 0 0 0 0 0 0 0 0 0 0 0 0 0 20 21 63 63 62 0 0 0 31 0 0 0 0 0 0 0 0 0 0 17 18 18 18 19 19 19 24 25 24 25 24 23 24 25 26 27 28 29 0 43 44 45 46 0 0 47 66 66 66 66 66 65 65 65 65 65 65 65 0 0 0 0 0 0 0 0 0 0 17 19 19 20 20 21 23 24 0 0 67 67 66 88 35 31 31 33 33 32 33 34 39 40 40 41 46 46 47 47 47 67 67 67 67 67 67 67 68 67 68 68 68 68 68 68 67 66 65 65 66 67 67 67 67 71 72 72 73 74 73 68 68 68 68 68 68 68 68 68 68 68 68 68 68 68 68 68 68 68 68 68 68 68 68 68 68 68 68 68 68 68 68 68 68 68 68 68 68 68 68 68 68 68 68 56 57 67 67 67 67 68 68 68 68 68 68 68 68 68 68 68 68 68 68 68 68 68 68 68 68 68 68 68 68 68 68 68 69 70 69 69 67 68 68 68 68 68 68 68 68 68 67 67 67 67 67 67 67 67 67 67 67 67 66 66 66 66 66 66 67 67 66 66 67 67 66 66 66 66 66 66 66 66 66 66 66 66 66 66 66 65 66 66 66 66 43 43 43 43 44 49 50 51 51 52 52 56 56 57 57 58 60 61 62 62 63 62 58 58 61 62 63 64 50 50 48 64 64 64 64 64 64 64 64 64 55 57 58 58 58 58 58 55 55 56 56 56 56 56 55 55 55 55 56 50 52 52 53 53 53 53 53 53 42 42 43 44 45 46 47 48 49 50 51 59 59 64 64 58 58 58 59 60 60 61 61 74 53 52 52 52 0 0 0 30 30 30 30 30 30 30 30 30 30 30 30 30 30 47 48 49 31 31 30 30 30 30 30 31 38 39 40 41 42 43 36 37 38 39 30 30 30 30 30 31 30 30 30 30 30 30 30 30 31 30 31 32 33 34 34 35 30 30 31 31 31 31 41 39 40 40 41 43 44 45 46 39 40 41 30 30 31 31 31 31 31 41 40 41 42 43 44 45 46 38 39 40 41 42 43 44 45 46 44 42 42 31 31 31 31 31 31 31 39
    0 0 0 0 0 0 0 0 0 0 0 0 0 0 0 0 0 0 0 0 0 0 0 0 0 0 0 0 0 0 0 0 0 28 28 28 28 28 28 28 27 28 29 29 30 28 28 0 0 0 26 27 27 28 28 29 28 28 28 28 28 28 28 28 28 28 28 28 28 28 28 28 59 60 27 28 29 30 31 66 67 68 69 33 33 33 0 0 0 0 0 0 68 69 51 82 50 51 51 52 53 54 54 53 53 53 53 53 53 53 28 29 56 31 32 0 0 0 0 0 0 0 0 0 0 0 0 0 0 0 0 0 0 0 0 0 0 0 0 0 0 0 0 0 0 0 0 20 21 27 31 31 31 0 0 31 0 0 0 0 0 0 0 0 0 0 17 17 18 18 19 20 20 20 24 24 24 24 24 24 25 26 0 0 0 42 43 45 45 46 47 48 47 46 66 66 66 66 65 65 65 65 65 65 0 0 0 0 0 0 0 0 0 0 17 17 18 19 19 23 24 25 24 0 0 0 67 66 34 34 35 34 33 34 34 40 41 40 40 40 41 46 47 48 49 48 67 67 67 67 67 67 67 68 67 68 68 68 68 68 68 67 67 67 67 67 67 67 67 67 72 72 68 68 68 68 68 68 68 68 68 68 68 68 68 68 68 68 68 68 68 68 68 68 68 65 67 66 67 68 68 68 68 68 68 68 68 68 68 68 68 68 68 68 68 68 68 68 68 55 56 59 66 67 67 67 68 68 68 68 68 68 68 68 68 68 68 68 68 68 68 68 68 68 68 68 68 68 68 68 68 68 68 69 70 69 69 68 68 68 68 68 68 68 68 68 68 68 67 67 67 67 67 67 67 67 67 67 67 66 66 66 66 66 66 67 67 67 67 53 53 51 66 66 66 66 66 66 66 66 66 66 64 65 65 65 65 66 66 66 66 66 65 45 46 47 48 48 49 50 62 62 56 56 56 57 58 59 60 60 61 61 61 62 61 61 62 63 49 50 50 50 64 64 64 64 64 64 64 64 64 64 61 55 56 57 58 59 60 56 56 56 56 56 56 55 55 55 56 57 50 51 52 53 54 44 43 43 43 42 42 43 44 45 46 47 48 49 50 50 59 59 64 64 58 58 58 58 59 60 61 61 64 53 52 52 0 0 0 0 30 30 30 30 30 30 30 30 30 30 30 30 30 30 45 46 49 30 30 30 30 30 30 30 31 31 31 32 33 33 34 35 36 37 38 30 30 30 30 30 30 30 30 30 30 30 30 30 30 31 30 31 32 33 33 34 29 30 30 31 31 31 31 38 39 40 41 42 43 44 45 46 39 40 41 30 30 31 31 31 31 31 31 40 41 42 43 44 45 46 47 39 40 41 38 39 40 45 46 47 47 47 31 31 31 31 31 31 31 44
    0 0 0 0 0 0 0 0 0 0 0 0 0 0 0 0 0 0 0 0 0 0 0 0 0 0 0 0 0 0 0 0 0 28 28 28 28 28 28 28 28 28 28 29 28 0 28 0 23 25 26 26 27 28 28 41 28 28 28 28 28 28 28 28 28 28 28 28 27 27 28 28 28 26 27 28 29 29 30 32 33 34 35 33 33 0 0 0 0 0 0 71 70 71 46 50 51 51 51 52 53 54 54 53 53 53 53 53 53 53 28 29 56 31 32 0 0 0 0 0 0 0 0 0 0 0 0 0 0 0 0 0 0 0 0 0 0 0 0 0 0 0 0 0 0 0 0 0 0 0 27 28 0 0 0 0 0 0 0 0 0 0 0 0 0 0 0 17 17 18 19 20 21 22 23 24 24 24 24 24 25 23 24 41 42 42 43 45 45 46 48 48 49 50 66 66 66 66 65 65 0 0 0 0 0 0 0 0 0 0 0 0 0 0 17 17 18 19 19 18 24 24 26 26 27 28 28 28 29 30 30 31 29 29 28 34 34 35 39 40 41 35 36 36 42 43 35 68 67 67 67 67 67 67 67 68 68 68 68 68 68 67 67 67 67 67 67 67 67 67 71 72 67 68 68 68 67 68 68 68 68 68 68 68 68 68 68 68 68 68 68 68 68 68 63 64 67 66 67 68 68 68 68 68 68 68 68 68 68 68 68 68 68 68 68 68 68 68 68 56 56 59 66 67 67 68 68 68 68 68 68 68 68 68 68 68 68 68 68 68 68 68 68 68 68 68 68 68 68 68 68 68 68 68 68 69 68 68 68 68 68 68 68 68 67 68 67 63 64 67 67 67 67 67 67 67 67 61 67 66 66 66 66 66 66 67 66 67 67 53 53 51 66 66 66 66 66 66 66 66 66 66 64 65 65 65 65 66 66 66 66 64 65 65 65 65 65 65 47 63 62 63 63 57 58 60 60 72 55 56 57 58 57 64 50 51 52 50 51 50 55 54 64 64 64 64 64 60 61 62 63 63 63 63 63 63 63 63 62 62 62 57 57 56 57 54 55 55 56 57 50 51 52 52 52 61 61 61 60 60 43 43 44 45 46 47 48 48 49 50 59 59 50 64 57 58 58 58 59 60 61 61 64 53 52 52 0 0 0 32 30 30 30 30 30 30 30 30 30 36 36 36 30 30 45 48 30 30 30 30 30 30 30 30 30 30 31 31 32 33 34 35 36 37 38 30 30 30 30 30 30 30 30 30 30 30 30 30 30 31 30 31 31 32 33 34 30 30 31 31 31 31 41 38 39 40 41 42 43 44 45 46 40 41 42 49 30 31 31 31 31 31 31 31 31 31 31 44 45 46 47 48 35 36 37 38 39 31 31 31 31 31 31 31 31 31 31 31 31 44
    0 0 0 0 0 0 0 0 0 0 0 0 0 0 0 0 0 0 0 0 0 0 0 0 0 0 0 0 0 0 0 0 0 28 28 28 28 28 28 28 28 28 0 0 0 0 0 0 27 24 25 26 27 28 29 29 28 28 28 28 28 28 28 28 28 28 28 28 27 44 28 46 47 49 49 50 51 52 53 54 55 56 57 33 34 68 0 0 0 0 0 71 46 46 46 47 72 54 73 74 76 76 77 53 53 53 53 53 53 54 0 56 56 31 0 0 0 0 0 0 0 0 0 0 0 0 0 0 0 0 0 0 0 0 0 0 0 0 0 0 0 0 0 0 0 0 0 0 0 24 25 28 0 0 0 0 0 0 0 0 0 0 0 0 0 0 0 0 17 18 19 20 21 22 23 23 24 24 24 24 24 39 39 41 41 42 43 44 45 46 47 0 0 0 66 66 65 62 0 0 0 0 0 0 0 0 0 0 0 0 0 0 0 17 17 17 18 19 19 19 24 24 25 27 28 29 29 29 29 29 30 29 29 29 26 27 34 35 35 35 30 31 32 33 51 43 44 68 67 67 67 67 67 67 67 67 67 67 67 67 67 67 67 67 67 67 67 67 67 67 67 67 68 68 68 65 69 67 68 68 68 68 68 68 68 68 68 68 68 68 68 68 68 68 68 64 67 66 67 68 68 68 68 68 68 68 68 68 68 68 68 68 68 68 68 68 68 68 68 68 56 56 67 67 67 68 68 68 68 68 68 68 68 68 68 68 68 68 68 68 68 68 68 68 68 68 68 68 68 68 68 68 68 68 68 68 68 68 68 68 68 68 68 68 67 67 67 67 67 67 67 67 73 67 67 67 60 61 67 66 66 66 66 66 66 67 67 67 67 53 54 51 67 66 66 66 66 66 66 66 66 66 64 65 65 65 59 66 65 65 66 65 65 65 65 65 65 62 63 63 63 63 63 64 67 68 69 71 72 72 72 65 65 64 64 64 64 63 64 64 55 54 54 54 55 55 60 60 61 62 63 63 63 63 63 63 63 63 62 62 62 58 57 56 54 54 55 56 56 58 50 51 52 52 52 61 61 61 60 60 60 43 44 45 46 47 48 48 49 50 59 59 46 46 57 58 58 58 59 60 61 62 64 53 52 53 0 0 0 32 30 30 30 30 30 31 31 37 37 37 37 37 36 46 45 48 30 30 30 30 30 30 30 30 30 31 44 45 46 33 34 35 36 37 38 39 30 30 31 30 30 30 30 30 30 30 30 30 30 31 30 31 31 32 33 34 30 30 31 31 31 31 41 38 39 40 41 42 43 44 46 47 40 41 42 49 30 31 31 31 31 31 31 31 31 31 31 44 45 46 47 48 49 36 37 38 39 31 31 31 31 31 31 31 31 31 31 31 31 44
    0 0 0 0 0 0 0 0 0 0 0 0 0 0 0 0 0 0 0 0 0 0 0 0 0 0 0 0 0 0 0 0 27 28 28 28 28 28 28 28 28 28 0 0 0 28 25 27 27 28 0 0 27 28 29 29 28 28 28 28 28 28 28 28 28 28 28 28 27 27 28 29 30 31 51 50 51 52 53 37 38 39 40 34 68 68 69 0 70 71 71 71 46 46 46 47 52 75 76 76 76 76 76 53 53 53 53 53 53 54 0 56 56 56 0 0 0 0 0 0 0 0 0 0 0 0 45 0 0 0 0 0 0 0 0 0 17 0 0 0 0 0 0 0 0 0 0 0 0 22 24 25 0 0 0 0 0 0 0 0 0 0 0 0 0 26 27 0 0 0 0 0 0 0 0 24 25 25 25 36 37 39 40 24 25 26 27 28 29 30 47 0 0 0 66 66 61 0 0 0 0 0 0 0 0 0 0 0 0 0 0 0 0 17 17 17 18 19 19 19 24 24 25 27 28 29 29 29 29 30 30 29 29 30 31 27 27 28 28 28 29 31 32 32 32 52 53 68 68 67 67 67 67 67 67 67 67 67 67 67 67 67 67 68 68 70 68 67 67 67 67 67 68 68 68 65 69 71 68 68 68 72 72 68 68 68 68 68 68 68 68 68 68 68 67 67 67 67 67 67 68 68 68 68 68 68 68 68 68 68 68 68 68 68 68 68 68 68 68 69 56 56 68 67 68 68 68 68 68 68 68 68 68 68 68 68 68 68 68 68 68 68 68 68 68 68 68 68 68 68 68 69 68 68 68 68 68 68 68 68 68 68 68 67 67 67 67 67 68 67 66 67 74 67 67 67 42 61 67 66 66 66 66 66 66 67 67 68 67 54 55 55 67 67 62 66 66 59 60 61 62 63 64 65 65 66 66 66 66 66 66 65 65 65 65 65 65 62 63 62 63 63 63 63 64 66 68 69 44 45 65 65 65 64 64 64 64 64 64 55 55 54 55 55 55 58 59 60 61 62 51 52 53 63 63 63 63 63 62 62 62 59 57 56 54 54 55 56 57 58 59 51 52 52 62 62 65 66 60 60 60 43 43 44 45 46 47 48 49 50 59 59 46 46 46 58 58 58 59 60 61 62 64 53 52 53 0 0 0 32 33 41 42 36 37 38 39 40 41 42 42 42 45 46 45 45 30 30 30 30 30 30 30 30 31 31 45 46 47 48 49 35 36 37 38 39 40 41 42 43 44 30 30 30 30 30 30 30 30 31 30 31 31 32 33 28 30 30 31 31 31 31 41 42 39 40 41 42 44 45 46 47 40 40 40 49 31 31 31 31 31 31 31 31 31 31 31 44 45 46 47 48 49 36 37 38 52 52 31 31 31 31 31 31 31 31 31 31 31 31
    0 0 0 0 0 0 0 0 0 0 0 0 0 0 0 0 0 0 0 0 0 0 0 0 0 0 0 0 0 0 0 0 0 28 28 28 28 28 28 28 28 28 0 0 0 23 27 27 27 28 29 30 31 32 33 29 28 28 28 28 28 28 28 28 28 28 28 28 47 48 49 50 51 52 53 54 55 56 57 58 59 60 61 61 61 43 68 68 69 70 71 41 46 46 76 78 53 76 77 78 79 80 80 53 53 53 53 53 53 54 47 47 47 47 0 52 52 0 0 0 0 0 0 0 0 44 44 0 0 0 0 0 0 0 17 18 19 19 19 61 61 20 20 21 0 0 0 0 0 22 23 0 0 0 0 38 39 40 40 40 40 40 40 41 42 27 27 0 0 0 0 0 0 0 0 0 36 25 36 36 24 23 24 25 25 26 27 28 29 30 0 0 0 0 0 0 0 0 0 0 0 0 0 0 0 0 0 0 0 0 0 0 0 17 18 18 19 19 19 24 24 24 25 27 28 29 29 30 29 30 30 31 38 30 27 27 28 28 28 28 29 31 31 31 31 87 53 87 68 68 67 67 67 67 67 67 67 67 67 67 67 67 67 68 69 70 70 66 66 67 67 67 68 68 62 62 62 68 68 68 68 68 72 68 68 68 68 68 68 68 68 68 68 67 67 67 67 68 67 67 68 68 68 68 68 68 68 68 68 68 68 68 68 68 68 68 68 68 68 69 68 68 68 68 68 68 68 68 68 68 68 68 68 68 68 68 68 68 68 68 68 68 68 68 68 68 67 67 67 68 68 69 68 68 68 68 68 68 68 68 68 68 68 67 67 67 67 67 67 65 66 67 67 67 67 68 42 65 66 67 67 67 67 67 67 67 54 54 67 55 55 55 56 59 58 58 60 61 61 62 62 63 64 65 66 66 66 66 66 66 66 65 65 65 65 64 65 62 62 44 62 63 63 63 65 63 63 64 44 45 65 65 65 64 64 64 64 64 64 62 55 55 55 56 55 58 59 61 61 50 51 52 53 63 63 63 63 63 62 62 62 59 57 55 54 54 55 56 57 58 59 51 52 52 51 62 61 61 59 60 60 43 43 44 46 46 47 48 49 50 59 59 45 46 57 58 58 58 59 60 61 62 53 54 52 53 0 0 0 32 33 41 42 43 36 37 38 39 40 41 42 43 45 46 45 45 30 30 30 30 30 30 30 30 31 31 44 45 46 47 48 35 36 37 38 39 40 41 42 43 44 45 46 30 30 30 30 30 30 31 30 30 31 25 26 27 30 30 30 31 31 31 31 32 39 40 41 43 44 45 46 47 48 37 38 49 31 31 31 31 31 31 31 31 31 31 31 31 45 46 47 48 49 36 37 38 52 52 52 31 31 31 31 31 31 31 31 31 31 31
    0 0 0 0 0 0 0 0 0 0 0 0 0 0 0 0 0 0 0 0 0 0 0 0 19 0 0 0 0 0 0 0 0 28 28 28 28 28 28 28 28 28 0 0 0 27 27 27 28 29 30 31 32 33 33 29 28 28 28 28 28 28 28 28 28 28 28 28 48 49 50 51 52 53 54 55 56 56 58 59 60 61 62 63 64 65 66 67 68 69 45 41 46 46 77 78 55 77 78 79 80 81 60 53 53 53 53 53 53 54 47 47 47 47 0 0 0 0 0 17 0 0 44 44 0 44 44 0 0 0 0 0 17 18 18 19 20 0 0 61 61 61 20 20 19 20 21 21 21 22 23 24 25 0 0 39 40 41 40 40 41 41 41 41 42 18 0 0 0 0 0 0 0 0 0 0 20 20 20 20 21 38 39 64 64 65 65 65 0 0 0 0 0 0 0 0 0 0 0 0 0 0 0 0 0 0 0 0 0 0 0 0 17 18 18 18 19 20 19 24 25 25 25 27 28 29 29 29 29 30 30 31 44 31 31 27 27 94 94 94 94 76 77 31 87 87 42 41 68 68 67 67 67 67 61 61 68 67 67 67 67 67 68 68 69 70 68 68 67 67 67 68 68 63 86 61 69 68 68 68 68 68 72 68 68 68 68 68 68 68 68 68 68 68 67 67 68 68 69 68 71 68 68 68 68 68 68 68 68 68 68 68 68 68 68 68 68 68 68 68 68 68 68 68 68 68 68 68 68 68 68 68 68 68 68 68 68 68 68 68 68 68 68 68 64 65 66 66 67 67 68 68 68 68 68 68 68 68 68 68 68 68 68 68 68 67 68 67 67 67 66 67 67 67 67 68 39 40 67 67 67 67 67 67 67 67 67 66 67 67 55 56 57 60 61 62 62 61 62 62 63 63 65 66 66 66 66 66 66 66 66 65 65 65 63 64 64 62 63 43 44 63 63 41 42 63 63 42 43 44 65 65 65 64 64 64 64 64 64 62 59 56 57 58 57 59 60 61 49 50 51 52 53 66 63 63 63 63 62 62 62 59 54 55 54 54 55 56 57 58 59 51 51 52 51 61 61 61 59 60 44 44 52 45 46 47 39 48 49 50 50 51 53 54 57 57 57 58 58 58 58 63 53 54 52 53 0 0 0 32 33 41 42 35 36 37 38 39 40 41 42 43 45 46 47 48 46 30 30 30 30 30 30 30 31 31 44 43 44 45 46 47 36 37 38 39 40 41 42 42 43 43 43 46 30 30 30 0 30 31 31 30 31 25 26 27 30 30 30 30 30 31 31 31 31 31 31 42 43 44 45 47 47 31 31 31 31 31 31 31 31 31 31 31 31 31 31 31 48 48 49 34 35 36 37 38 39 52 52 31 31 31 31 31 31 31 31 31 31 31
    0 0 0 0 0 0 0 0 0 0 0 0 0 0 0 0 0 0 0 0 0 0 0 18 18 0 0 0 0 0 0 26 27 28 28 28 28 28 28 28 28 28 28 0 27 27 27 28 28 29 30 31 32 33 34 29 28 28 28 28 28 28 28 28 28 28 28 28 28 49 50 51 52 53 54 55 56 58 58 59 60 61 62 63 64 65 66 67 64 65 66 65 66 67 78 78 55 56 78 79 80 81 82 53 53 53 53 53 53 53 54 55 0 0 0 0 0 0 0 17 0 0 44 44 45 45 0 0 0 0 0 0 17 18 19 20 21 0 0 61 61 61 62 0 19 20 20 21 33 34 35 36 37 38 39 40 41 41 0 41 41 41 40 41 41 0 0 0 0 0 0 0 0 0 0 19 20 20 47 47 48 39 39 64 65 65 65 66 66 0 0 0 0 0 0 0 0 0 0 0 0 0 0 0 0 0 0 0 0 0 0 0 0 0 0 20 21 23 24 25 25 27 27 28 29 31 32 32 33 35 36 44 44 45 31 31 94 94 94 94 94 93 77 33 88 66 88 59 58 59 59 59 58 59 61 61 62 67 68 67 67 67 68 68 68 68 68 68 68 68 68 68 69 59 60 63 64 64 65 68 68 68 68 68 68 68 68 68 68 68 68 68 68 68 68 68 68 68 68 68 68 68 68 68 68 68 68 68 68 68 68 68 68 68 68 68 68 68 68 68 68 68 68 68 68 68 68 68 68 68 68 68 68 68 68 68 68 68 69 68 68 68 68 68 68 66 66 66 67 68 68 68 68 68 68 68 68 68 68 68 51 68 68 68 68 68 68 67 67 67 66 67 67 24 37 37 38 41 67 67 67 67 67 67 67 67 67 67 67 66 55 56 56 60 61 62 62 61 62 62 63 63 65 66 66 66 66 66 66 66 66 65 65 65 60 60 60 60 43 43 44 62 62 63 42 42 42 42 43 44 65 65 65 64 64 64 64 64 64 75 77 77 58 59 56 56 61 61 49 50 51 52 53 63 63 63 63 63 62 62 62 59 52 52 53 54 55 55 56 57 59 60 52 52 53 52 52 52 58 60 48 47 47 48 50 51 52 52 52 55 55 56 57 58 58 57 57 57 57 57 58 58 53 54 52 53 0 0 0 32 33 34 34 35 36 37 38 39 40 41 42 44 45 46 47 47 42 30 30 30 30 30 30 31 31 31 41 42 43 44 45 46 47 48 30 30 30 31 31 43 43 43 43 44 30 30 0 0 0 31 31 30 31 32 26 27 28 30 30 30 30 30 31 31 31 31 31 42 43 44 45 46 31 31 31 31 31 31 31 31 31 31 31 31 31 31 31 31 48 49 33 34 35 36 37 38 39 31 31 31 31 31 31 31 31 31 31 31 31 31
    0 0 0 0 0 0 0 0 0 0 0 0 0 0 0 0 0 0 0 0 0 0 0 0 0 0 0 0 0 0 0 0 0 28 28 28 28 28 28 28 28 28 28 28 27 27 23 24 25 26 27 28 29 29 29 29 28 28 28 28 28 28 28 28 28 28 28 28 28 28 28 28 48 49 51 52 53 53 54 55 57 58 58 59 61 62 63 64 64 65 65 65 66 67 49 79 80 50 78 79 80 81 83 53 53 53 53 53 53 53 54 55 0 0 0 0 0 0 0 17 18 0 0 0 0 0 0 0 0 0 0 0 17 18 19 20 21 0 42 42 42 43 43 44 44 30 31 32 33 34 35 36 37 38 39 40 41 0 0 41 41 63 40 41 40 0 0 0 0 0 0 0 0 0 0 25 20 20 47 47 48 39 64 64 65 65 65 66 66 67 0 0 0 0 0 0 0 0 0 0 0 0 0 0 0 0 0 0 0 0 0 0 0 0 0 0 23 24 25 25 26 28 29 29 30 32 33 33 34 36 43 44 45 74 40 40 39 40 40 93 93 93 93 33 65 66 88 61 62 62 60 61 60 61 61 62 63 64 68 68 68 68 68 68 68 68 68 68 68 68 68 68 58 59 60 60 68 64 65 65 68 68 68 40 68 68 68 68 68 68 68 68 68 68 68 68 68 68 68 68 68 68 68 68 68 68 68 68 68 68 68 68 68 68 68 68 68 68 68 68 68 68 68 68 68 68 68 68 68 68 68 68 68 68 68 68 68 68 69 69 68 68 68 68 68 66 67 67 67 68 68 68 68 68 68 68 68 68 68 68 51 68 68 68 68 68 68 67 67 67 66 66 67 24 67 41 41 40 67 67 67 67 67 67 67 67 67 67 67 66 56 56 57 64 65 65 65 61 61 62 63 63 65 66 66 66 66 66 66 66 66 65 65 65 60 60 59 60 60 61 61 62 62 62 62 62 38 38 43 44 65 65 65 65 64 64 64 64 64 75 51 52 53 54 55 60 61 62 49 50 51 52 53 54 63 63 63 63 62 62 58 52 52 52 52 53 54 55 56 57 57 58 59 53 53 54 51 51 47 47 47 47 48 48 51 51 52 52 53 54 55 56 57 58 59 46 57 57 57 57 57 58 53 54 52 53 0 0 0 32 33 34 34 36 36 37 39 39 40 41 43 44 45 46 47 47 46 43 30 30 30 30 30 31 31 31 31 42 45 45 45 46 46 47 30 30 30 30 31 31 43 42 42 43 30 30 0 0 0 31 31 30 31 25 26 27 28 29 30 30 30 30 31 31 31 31 31 42 43 44 45 31 31 31 31 31 31 31 31 31 31 31 31 31 31 31 31 31 49 50 33 34 35 36 37 38 39 31 31 31 31 31 31 31 31 31 31 31 31 31
    0 0 0 0 0 0 0 0 0 0 0 0 0 0 0 0 0 0 0 0 0 0 0 0 0 0 0 0 0 0 0 0 0 28 28 28 28 28 28 28 28 28 28 27 27 21 23 24 25 26 27 28 28 29 29 29 28 28 28 28 28 28 28 28 28 28 28 28 28 28 28 28 28 49 51 52 52 53 54 55 57 58 58 59 61 62 63 64 65 65 65 65 66 43 76 75 81 50 76 52 53 54 54 53 53 53 53 53 53 53 54 55 0 0 0 0 0 0 0 17 18 18 0 0 0 0 0 0 0 0 0 0 17 18 19 20 21 0 0 42 43 43 43 44 44 44 45 32 34 34 35 36 37 38 39 40 41 0 0 41 41 41 40 40 40 0 0 17 18 19 20 0 0 0 19 19 20 20 20 20 48 39 64 64 65 65 65 66 66 67 0 0 0 0 0 0 0 0 0 0 0 0 0 0 0 0 0 0 65 66 66 66 91 0 0 23 23 24 25 26 27 29 30 31 31 33 33 34 35 36 42 44 44 72 50 67 67 67 67 39 94 94 94 34 34 66 89 62 62 62 60 59 60 61 61 63 63 67 68 68 68 69 68 68 68 68 68 68 68 68 68 68 89 59 59 68 69 68 68 68 37 68 68 40 68 68 68 68 68 68 68 68 68 68 68 68 68 68 68 68 68 68 68 68 68 68 68 68 68 68 68 68 68 68 68 68 68 68 67 51 50 48 68 68 68 68 68 68 68 68 68 68 68 68 68 68 68 68 69 68 68 68 68 68 68 66 67 67 67 68 68 68 68 68 68 68 68 68 68 68 67 68 68 68 69 68 68 67 67 67 66 66 62 63 64 65 68 67 67 67 67 67 67 67 67 67 67 67 67 67 56 57 57 66 66 65 61 61 61 62 63 64 65 66 66 66 66 66 66 66 66 65 65 65 59 59 59 59 59 60 61 63 62 62 62 62 63 43 43 41 38 65 65 64 64 64 64 64 64 48 50 51 52 53 56 61 61 49 50 51 51 52 53 54 55 63 63 58 58 62 59 51 51 51 51 51 51 51 62 56 57 57 57 54 53 54 46 43 44 46 47 48 48 48 51 51 52 52 53 55 55 56 57 58 59 57 47 47 57 57 57 58 64 54 52 53 0 0 0 32 33 34 34 36 37 38 39 40 40 42 43 44 45 46 47 48 48 44 43 43 53 54 55 56 57 31 31 46 45 45 45 45 46 30 30 30 30 30 31 31 43 42 41 41 41 30 0 0 0 31 31 30 31 31 30 30 30 30 30 30 30 30 31 31 31 31 31 43 44 45 46 31 31 31 31 31 31 31 31 31 31 31 31 31 31 31 31 48 49 33 34 35 35 36 37 38 39 31 31 31 31 31 31 31 31 31 31 31 31 47
    0 0 0 0 0 0 0 0 0 0 0 0 0 0 0 0 0 0 0 0 0 0 0 0 0 0 0 0 0 0 0 0 0 28 28 28 28 28 28 28 28 28 28 27 27 28 29 30 31 32 27 28 28 28 29 29 28 28 28 28 28 28 28 28 28 28 28 28 28 28 28 28 28 28 57 52 52 53 61 62 63 64 65 66 67 68 68 64 65 65 73 74 66 67 75 75 81 76 76 82 83 53 54 53 53 53 53 53 53 53 54 55 0 0 0 0 0 0 0 17 18 19 20 21 0 0 0 0 0 27 0 17 17 18 19 20 21 22 22 23 0 0 43 43 44 44 45 36 36 35 35 36 37 39 39 40 41 0 41 42 42 41 40 40 40 0 0 17 18 19 20 21 22 23 23 20 20 19 20 20 20 39 64 64 65 65 65 66 66 67 0 0 0 0 0 0 0 0 0 0 0 0 0 0 0 0 0 0 65 66 66 66 66 67 92 27 29 24 25 26 33 34 35 36 30 38 39 40 40 41 42 43 43 50 50 67 67 67 67 67 39 68 39 34 34 65 64 63 63 63 63 63 65 66 67 67 67 68 70 68 69 69 68 68 68 68 68 68 68 68 68 68 89 59 31 68 69 68 68 36 37 68 68 68 68 68 68 68 68 68 68 68 68 68 68 68 68 68 68 68 68 68 68 68 68 68 68 68 68 68 68 68 68 68 68 68 68 68 52 67 50 48 68 68 68 68 68 68 68 68 68 68 68 68 68 68 68 68 69 68 68 68 68 68 68 68 68 68 67 68 68 68 68 68 68 68 68 68 68 68 67 67 68 68 67 67 67 67 67 67 66 66 62 63 64 65 66 49 67 67 67 67 67 67 67 67 67 67 67 56 57 57 57 58 61 61 61 61 61 62 63 64 65 66 66 66 66 66 66 66 66 65 65 65 63 57 58 59 65 65 65 65 65 62 62 62 63 63 64 65 38 65 65 64 64 64 64 64 47 48 49 50 51 52 61 61 62 47 63 63 64 65 66 55 55 57 58 58 58 59 59 60 51 51 62 62 62 62 62 62 62 56 57 58 53 46 46 43 44 44 47 48 48 50 51 52 52 52 54 54 55 56 57 58 59 57 57 57 57 57 57 57 57 54 54 53 0 0 0 32 33 34 35 36 37 38 39 40 41 42 43 44 45 46 47 48 48 49 39 40 39 54 55 56 57 58 59 46 46 46 47 48 50 30 30 30 30 30 31 31 43 41 41 41 41 30 0 0 0 31 31 30 31 31 32 30 30 30 30 30 30 31 31 31 31 31 31 43 44 45 46 31 31 31 31 31 31 31 31 31 31 31 43 45 46 47 48 49 37 38 39 39 40 38 38 39 44 31 31 31 31 31 31 31 31 31 31 31 31 45
    0 0 0 0 0 0 0 0 0 0 0 0 0 0 0 0 0 0 0 0 0 0 0 0 0 0 0 0 0 0 0 0 0 28 28 28 28 28 28 28 28 28 27 28 28 29 29 30 31 33 34 34 35 28 28 28 28 28 28 28 28 28 28 28 28 28 28 28 28 28 28 28 28 28 58 58 59 61 62 63 64 64 65 66 67 68 38 39 40 41 74 74 74 75 75 75 75 83 76 77 83 84 84 53 53 53 53 53 53 54 54 55 0 0 0 0 0 0 17 18 19 19 20 22 0 0 0 0 48 49 32 33 33 34 19 20 21 22 22 23 0 0 28 43 44 45 45 36 36 35 35 36 37 38 39 40 41 42 0 42 19 23 23 39 0 0 0 17 18 19 45 21 22 23 22 20 19 19 20 20 20 24 40 64 40 65 65 65 66 0 0 0 0 0 0 0 0 0 0 0 0 0 0 0 0 0 0 0 65 66 66 66 66 67 92 27 29 30 31 32 33 34 35 36 30 38 39 40 41 42 43 43 44 70 67 67 67 67 67 67 67 39 39 34 65 65 65 63 63 63 67 67 67 66 67 67 68 69 70 68 68 68 68 68 68 68 68 68 68 68 68 68 89 69 69 68 69 68 68 36 37 68 68 68 68 68 68 68 68 68 68 68 68 68 68 68 68 68 68 68 68 68 68 68 68 68 68 68 68 68 68 68 68 68 68 68 68 68 52 52 49 49 68 68 68 68 68 68 68 68 68 68 68 68 68 68 68 68 69 68 68 68 68 68 68 68 68 68 68 68 68 68 68 68 68 68 68 68 68 68 67 67 67 68 67 67 68 67 67 67 66 66 67 63 64 47 48 49 67 67 67 67 67 67 67 67 67 67 67 56 57 57 65 59 59 61 60 61 62 62 63 65 66 66 66 66 66 66 66 66 66 65 65 62 63 56 57 65 65 65 65 65 65 65 62 62 63 63 64 64 65 39 65 41 53 53 64 46 47 47 49 49 49 51 61 61 62 47 48 63 64 65 66 67 55 56 57 58 58 59 59 60 51 51 62 62 62 62 62 62 62 62 56 58 52 45 45 43 43 44 45 47 47 46 47 50 51 50 53 54 55 54 55 58 57 57 57 57 57 57 57 57 57 54 54 53 0 0 0 32 33 34 35 36 37 30 30 30 41 42 43 44 45 46 47 48 48 49 38 39 39 40 30 30 30 30 31 31 52 52 52 48 50 30 30 30 30 30 31 31 31 40 41 41 31 31 31 0 31 31 31 30 31 31 32 30 30 30 30 30 30 31 31 31 31 31 31 43 44 45 46 31 31 31 31 31 31 31 31 31 31 31 44 45 46 47 48 49 37 38 39 39 40 41 42 43 44 31 31 31 31 31 31 31 31 31 31 31 31 45
    0 0 0 0 0 0 0 0 0 0 0 0 0 0 0 0 0 0 0 0 0 0 0 0 0 0 0 0 0 0 0 0 0 28 28 28 28 28 28 28 28 28 27 28 28 29 30 30 31 33 34 34 28 28 28 28 28 28 28 28 28 28 28 28 28 28 28 28 28 28 28 28 28 28 28 59 60 61 62 63 64 65 66 67 67 38 67 41 41 41 74 74 74 75 75 75 75 83 84 76 77 79 80 53 53 53 53 53 53 54 54 55 0 0 0 0 0 0 0 18 18 19 20 21 0 0 0 0 48 49 33 34 59 34 24 22 21 22 22 23 24 0 28 37 43 46 46 36 36 35 35 35 36 37 39 40 40 41 42 0 0 23 23 23 0 0 0 17 28 34 33 34 34 35 35 50 50 19 19 20 21 22 23 40 40 41 41 41 0 0 30 31 32 33 34 35 36 0 0 0 0 0 0 43 44 45 46 0 0 0 66 66 66 67 67 31 31 30 31 34 36 36 37 36 40 40 66 67 68 68 69 69 69 70 92 67 67 67 67 67 67 94 39 34 65 65 65 66 92 66 67 67 67 67 67 68 68 69 70 68 68 68 68 68 68 68 68 68 68 68 68 68 68 69 69 69 69 68 68 36 37 38 68 68 68 68 68 68 68 68 68 68 68 68 68 68 68 68 68 68 68 68 68 68 68 68 68 68 68 68 68 68 68 68 68 68 68 68 68 52 42 50 68 68 68 68 68 68 68 68 68 68 68 68 68 68 63 62 63 68 68 68 67 68 68 67 68 68 68 68 68 68 68 68 68 68 68 68 68 68 67 67 67 67 67 67 68 67 67 67 67 67 67 63 64 65 48 49 67 67 67 67 67 67 67 67 67 67 56 56 57 65 66 59 57 57 60 61 62 62 63 66 66 66 67 67 68 66 66 66 65 65 61 62 63 64 65 65 65 65 65 65 65 65 65 65 65 63 64 64 58 60 51 41 42 46 46 46 67 68 49 49 49 61 61 62 46 47 48 49 64 65 66 67 68 56 57 58 58 59 60 60 61 51 62 62 62 62 62 62 62 62 54 51 44 45 45 42 43 44 45 46 47 35 59 60 60 60 60 57 56 54 55 58 57 57 57 57 57 57 57 57 57 54 54 0 0 0 0 32 33 34 35 36 30 30 30 30 30 30 31 44 45 46 47 48 48 49 36 37 38 47 47 30 30 30 30 31 48 48 47 48 50 30 30 30 30 30 31 31 31 40 41 30 31 31 31 31 31 31 30 30 30 31 32 30 30 30 30 30 30 31 31 31 31 31 31 43 44 45 46 31 31 31 31 31 31 31 31 31 31 31 43 44 46 46 47 48 37 38 39 39 40 41 42 43 42 30 30 31 31 31 31 31 31 31 31 31 31 45
    0 0 0 0 0 0 0 0 0 0 0 0 0 0 0 0 0 0 0 0 0 0 0 0 0 0 0 0 0 0 0 0 0 28 28 28 28 28 28 28 28 28 28 28 28 28 0 0 29 28 28 28 28 28 28 28 28 28 28 28 28 28 28 28 28 28 29 29 29 28 28 28 28 28 28 28 61 62 32 33 34 35 36 37 38 38 40 41 42 43 74 74 75 75 76 46 47 48 85 50 81 81 81 53 53 53 53 53 53 54 55 55 0 0 0 0 0 0 0 0 17 19 20 21 22 0 0 23 48 49 60 60 59 24 24 22 20 20 21 0 0 0 28 41 42 53 47 44 35 35 35 35 36 36 37 39 40 40 41 42 22 22 23 23 0 0 0 17 28 34 34 34 60 60 36 36 50 19 19 19 20 22 23 24 24 25 26 27 28 29 30 31 32 33 34 35 36 37 38 39 40 41 42 43 44 45 46 47 23 24 24 24 0 0 54 54 31 32 33 34 35 36 62 63 64 65 66 67 68 67 68 69 69 69 84 92 67 67 67 67 67 94 95 64 65 65 65 66 66 66 66 67 67 67 67 68 68 69 70 68 68 68 68 68 68 68 68 68 68 68 68 68 68 69 69 69 69 68 68 36 37 69 68 68 68 68 68 68 68 68 68 68 68 68 68 68 68 68 68 68 68 68 68 68 68 68 68 68 68 69 69 68 68 68 68 68 68 68 68 68 41 49 68 68 68 68 68 68 68 68 68 68 68 68 68 68 63 63 63 67 67 67 67 68 68 68 68 68 68 68 68 68 68 68 68 68 68 68 68 68 68 67 67 68 67 67 67 67 67 67 67 67 67 67 63 63 48 49 67 67 67 67 67 67 66 67 61 56 56 57 57 65 66 57 57 57 57 57 57 66 67 66 67 67 67 69 62 63 64 62 61 61 61 62 63 64 65 65 65 65 65 65 65 65 65 65 65 65 63 63 63 53 51 52 54 55 56 57 58 59 60 60 61 61 47 47 46 47 48 63 64 65 66 67 68 70 70 71 58 59 60 61 61 62 62 62 62 62 62 62 62 62 62 61 45 45 42 42 43 44 49 50 34 59 59 60 60 60 60 60 59 60 57 58 57 57 57 57 57 57 57 57 57 54 54 55 0 0 0 0 33 34 35 36 30 30 30 30 30 30 31 31 45 46 47 48 48 49 36 51 52 46 30 30 30 30 30 30 30 62 31 48 65 30 30 30 30 30 31 31 39 40 40 30 31 31 31 31 31 31 30 30 30 31 32 30 30 30 30 30 30 31 31 31 31 31 31 43 44 45 46 31 31 31 31 31 31 39 40 41 41 42 43 36 37 38 39 40 41 42 43 44 44 43 44 44 45 30 31 31 31 31 31 31 31 31 31 31 31 31
    0 0 0 0 0 0 0 0 0 0 0 0 0 0 0 0 0 0 0 0 0 0 0 0 0 0 0 0 0 0 0 0 0 28 28 28 28 28 28 28 27 28 28 28 29 0 0 28 28 28 28 28 28 28 28 28 28 28 28 28 28 28 28 28 18 51 52 29 30 28 28 27 28 27 28 28 29 31 32 33 34 35 36 37 38 38 40 41 42 43 44 45 46 46 46 57 58 57 57 57 82 82 84 53 53 53 53 53 53 54 55 55 0 0 0 0 0 25 41 0 0 19 20 21 0 0 0 23 48 48 60 60 59 59 24 23 23 23 0 0 0 0 0 41 42 53 47 44 34 34 35 35 35 36 37 38 40 40 41 41 22 22 23 23 23 0 24 25 48 35 65 64 61 61 61 19 19 19 20 19 20 21 22 23 24 25 26 27 28 29 30 31 32 33 34 35 36 36 37 38 40 41 42 43 44 45 46 46 47 49 50 50 51 53 53 53 32 32 33 34 34 61 62 63 65 65 66 66 67 67 68 69 69 69 70 84 67 67 67 67 67 51 34 64 65 65 65 66 66 66 66 67 67 68 68 68 69 69 70 68 68 49 68 68 68 68 68 68 68 68 68 57 63 63 64 68 68 68 68 69 67 68 68 68 68 68 68 68 68 68 68 68 68 68 68 68 68 68 68 68 68 68 68 68 68 68 68 68 68 69 68 68 68 68 68 68 68 68 68 68 42 49 55 68 68 68 68 68 68 68 68 68 68 68 68 68 68 63 63 68 68 67 67 68 68 68 68 68 68 68 68 68 68 68 68 68 68 68 68 68 67 68 68 68 67 67 67 67 67 67 67 67 67 67 63 63 63 49 67 67 67 67 54 63 63 55 56 56 56 57 57 65 51 51 52 57 57 57 57 66 67 66 59 66 66 66 62 63 64 60 61 61 61 62 63 64 65 65 65 65 65 65 65 65 65 65 65 65 63 64 64 53 53 53 54 55 56 57 58 59 60 61 45 47 47 46 46 47 63 64 64 65 66 54 55 56 71 72 58 59 60 61 61 62 62 62 62 62 62 62 62 62 61 61 45 44 42 42 43 47 48 47 34 59 59 60 60 60 60 60 60 60 57 58 58 58 58 58 57 57 57 57 57 54 54 55 0 0 0 0 33 34 35 36 30 30 30 30 30 30 30 31 45 46 47 48 48 49 50 51 52 46 30 30 30 30 30 31 30 62 31 64 65 30 30 30 30 31 31 31 39 52 30 30 31 31 31 31 31 30 30 30 30 31 32 30 30 30 30 30 30 31 31 31 31 31 31 43 44 45 46 35 36 37 37 38 38 39 39 40 41 42 42 43 39 40 41 41 42 43 45 45 46 47 48 31 31 31 31 31 31 31 31 31 31 31 31 31 31 31
    0 0 0 0 0 0 0 0 0 0 0 0 0 0 0 0 0 0 0 0 0 0 0 0 0 0 0 0 0 0 0 0 0 28 28 28 28 28 27 27 28 28 29 30 31 0 0 28 28 28 28 28 28 28 28 28 28 28 28 28 28 28 50 17 18 52 52 53 53 23 24 25 26 27 28 28 63 64 32 33 67 68 69 70 71 72 73 73 42 43 44 45 46 47 48 57 57 57 58 58 60 83 61 53 53 53 53 53 53 54 55 55 0 0 0 0 58 28 41 0 0 0 0 0 0 0 0 23 23 60 60 60 60 60 60 24 24 24 23 0 0 0 0 41 42 47 47 47 34 34 35 35 37 38 36 18 18 19 18 19 18 18 18 23 23 23 23 24 34 0 65 64 64 64 63 63 19 19 49 0 0 0 0 0 0 0 0 0 0 0 0 0 0 0 0 0 0 0 0 0 17 18 19 20 20 21 22 24 25 26 27 28 29 30 31 32 32 32 34 35 35 67 62 62 66 66 66 67 67 67 48 47 47 46 46 70 46 46 45 49 50 50 50 64 65 65 65 66 66 66 67 67 67 68 68 68 69 69 70 68 67 67 67 68 68 68 68 68 68 68 68 69 69 69 69 68 68 68 68 68 68 68 68 68 68 68 68 68 68 68 68 68 68 68 68 68 68 68 68 68 68 68 68 68 68 68 68 68 68 68 68 68 68 68 68 68 68 68 68 68 36 54 54 55 68 68 68 68 68 68 68 68 68 68 68 59 68 63 63 63 67 67 67 67 68 68 68 68 68 68 68 68 72 72 68 68 68 68 68 68 68 68 67 67 67 67 67 67 67 67 67 67 67 67 67 63 54 66 56 53 58 53 59 59 60 55 55 55 56 57 58 59 51 51 51 56 57 57 57 66 67 58 59 60 66 57 65 64 59 60 60 61 62 63 64 65 65 65 65 65 65 65 65 65 65 65 65 65 65 65 65 55 55 54 55 56 57 58 59 60 61 62 47 47 63 63 63 63 63 64 64 65 53 54 55 56 57 58 58 59 60 61 62 62 62 62 62 62 62 62 62 62 61 61 62 44 42 43 44 47 48 47 34 59 59 60 60 60 60 60 60 60 58 58 58 58 58 58 57 57 57 57 57 54 54 55 0 0 0 0 33 34 35 36 30 30 30 30 30 30 30 30 46 46 47 47 48 49 50 51 52 46 30 30 30 30 30 31 30 30 62 64 65 30 30 30 31 31 31 31 31 52 30 30 31 0 0 31 31 30 30 31 32 33 34 34 30 30 30 30 30 31 31 31 31 31 31 43 44 45 34 35 36 36 37 38 38 38 38 39 39 40 40 40 41 42 43 43 44 45 46 46 47 31 31 31 31 31 31 31 31 31 31 31 31 31 31 31 31 31
    0 0 0 0 0 0 0 0 0 0 0 0 0 0 0 0 0 0 0 0 0 0 0 0 0 0 0 0 0 0 0 0 0 28 28 28 28 28 28 28 28 28 28 29 30 0 0 28 28 28 28 28 28 28 28 28 28 28 28 28 0 0 0 17 18 51 52 53 53 23 24 25 26 27 28 28 29 31 32 33 34 67 68 37 38 71 72 41 42 43 44 45 46 47 48 56 57 58 59 60 61 51 61 53 53 53 53 53 53 54 55 55 0 0 0 0 58 28 41 41 0 19 20 21 22 23 24 25 60 60 60 60 60 60 60 60 24 24 24 24 24 0 40 41 42 50 48 48 48 46 48 49 38 38 39 18 18 19 19 19 18 18 18 23 23 23 23 27 0 0 65 64 84 96 63 63 63 63 34 34 0 0 0 0 0 0 0 0 0 0 0 0 0 0 0 0 0 0 0 0 17 18 19 20 21 22 23 25 25 26 27 28 29 30 31 32 32 33 34 35 0 0 0 67 66 66 66 67 66 67 47 48 48 50 32 70 46 47 48 49 46 46 46 46 46 65 65 66 66 66 67 67 68 68 68 68 68 68 68 68 67 67 67 67 67 68 68 68 68 68 69 69 76 77 78 68 68 68 68 68 68 68 68 68 68 68 68 68 68 68 68 60 61 68 68 68 68 68 68 68 68 68 68 68 68 68 68 68 68 68 68 68 68 68 68 68 68 68 68 68 41 54 54 55 67 67 66 66 66 67 68 69 68 68 69 69 63 63 63 67 67 67 67 67 68 68 68 69 70 70 70 70 72 72 68 68 68 68 68 66 66 68 67 67 67 67 67 67 67 67 67 67 67 67 67 67 66 57 57 58 58 58 59 60 60 61 55 55 56 57 58 59 60 50 51 52 52 53 53 54 67 57 59 60 59 59 59 58 59 60 61 62 62 63 64 65 65 65 65 65 65 65 65 65 65 65 65 65 65 65 65 55 55 54 55 56 57 44 60 61 61 62 63 47 63 63 64 64 64 64 64 64 54 54 55 57 69 70 58 59 60 61 62 62 62 62 62 62 62 61 61 61 61 61 62 45 44 45 46 47 48 49 34 59 59 59 60 60 60 60 60 60 61 58 58 58 58 58 57 57 57 57 57 54 54 55 0 0 0 17 33 33 33 34 30 30 30 30 30 30 30 30 31 31 31 32 43 44 45 46 47 46 30 30 30 30 30 30 30 30 30 30 30 30 30 31 31 31 31 31 31 42 30 30 31 0 0 31 31 30 30 31 32 33 34 35 36 37 29 30 30 31 31 31 31 31 31 41 42 43 44 35 36 37 37 38 38 38 38 39 40 40 40 40 41 41 42 43 44 45 30 31 31 31 31 31 31 31 31 32 31 31 31 31 31 31 31 31 31 31
    0 0 0 0 0 0 0 0 0 0 0 0 0 0 0 0 0 0 0 0 0 0 0 0 0 0 0 0 0 0 0 0 0 28 28 28 28 28 28 28 28 28 28 29 29 0 0 28 28 28 28 28 28 28 28 28 28 28 28 0 0 0 0 17 18 19 52 52 29 30 24 25 26 27 28 29 29 29 32 33 34 67 36 37 38 39 71 72 42 43 44 45 46 47 48 49 50 58 59 59 82 83 84 53 53 53 53 53 53 54 55 55 0 0 0 58 58 58 28 28 27 20 20 21 22 23 24 25 60 60 60 60 60 60 60 60 60 46 37 40 24 0 40 41 42 50 48 49 48 46 49 49 53 37 38 18 18 19 18 18 18 19 18 23 23 23 24 36 0 65 65 64 64 64 64 64 64 64 64 17 17 0 0 0 0 0 0 0 0 0 0 0 0 0 0 0 0 0 0 0 17 18 19 20 21 22 23 24 25 26 27 28 29 30 30 31 32 32 34 35 67 67 67 67 67 66 66 66 66 66 47 47 48 49 36 36 33 34 35 36 46 46 46 47 64 64 64 64 65 66 67 68 68 68 68 68 68 68 68 68 67 67 67 67 67 67 68 69 69 68 68 69 68 68 78 68 68 68 68 68 68 68 68 68 68 68 68 68 68 68 68 69 63 62 63 63 68 68 69 69 69 68 68 68 68 68 68 68 68 68 68 68 68 68 68 68 68 68 68 68 41 41 55 55 68 68 66 66 66 66 68 69 69 69 69 59 68 63 63 63 67 67 67 67 68 68 68 69 70 71 72 72 72 72 68 68 68 68 68 66 66 67 67 67 67 67 67 67 67 67 67 67 67 67 67 67 67 67 67 58 58 59 59 59 60 60 60 52 53 65 66 66 67 68 55 50 51 52 53 54 67 67 67 79 66 66 65 59 59 60 61 62 62 63 64 65 65 65 65 65 65 65 65 65 65 65 65 65 65 65 65 56 56 55 55 57 44 44 65 66 62 63 63 63 63 63 64 64 64 64 64 64 64 55 63 57 58 59 67 68 60 62 62 62 62 62 62 62 62 61 61 61 61 61 62 62 44 45 46 47 48 49 34 59 59 59 60 60 60 60 60 60 61 59 59 58 58 58 57 57 57 57 57 56 54 0 0 0 0 32 33 33 33 33 32 30 30 30 30 30 30 30 31 30 30 30 30 30 30 31 30 30 30 30 30 30 31 31 30 30 30 30 30 30 30 31 31 31 31 31 31 31 30 30 31 0 31 31 31 30 30 31 32 33 34 35 36 37 29 30 30 31 31 31 31 31 31 41 42 43 44 45 36 37 38 38 39 39 38 39 40 41 39 40 41 41 42 44 30 31 31 31 31 31 31 31 31 32 32 32 31 31 31 31 31 31 31 31 31 31
    0 0 0 0 0 0 0 0 0 0 0 0 0 0 0 0 0 0 0 0 0 0 0 0 0 0 0 0 0 0 0 0 0 28 28 28 28 28 28 28 28 28 28 0 0 0 0 28 28 28 28 28 28 28 28 28 28 18 19 21 21 22 23 24 25 26 27 28 29 30 31 32 33 28 28 29 30 29 39 40 41 42 43 44 45 46 47 48 49 50 51 52 53 48 48 49 51 51 52 58 82 83 84 53 53 53 53 53 53 54 55 55 0 0 0 58 58 58 57 57 27 20 20 21 22 23 24 25 60 60 60 60 60 60 60 75 75 46 45 40 40 0 41 41 42 43 47 49 46 46 47 56 59 54 38 20 20 19 18 18 18 19 20 23 23 23 24 27 0 65 65 64 64 64 64 64 64 64 64 64 35 0 0 0 0 0 0 0 0 0 0 0 0 0 0 0 0 0 0 17 18 19 20 21 22 22 23 24 25 27 28 29 29 30 31 31 32 33 35 35 67 67 67 67 67 66 66 66 66 66 66 49 49 49 36 36 36 36 36 36 39 39 46 42 64 64 64 64 65 67 68 68 68 68 68 68 68 68 68 68 67 67 67 67 67 67 68 69 67 68 68 69 69 68 72 68 68 68 68 68 68 68 68 68 68 68 68 68 68 68 68 69 63 63 63 63 68 68 69 69 69 68 68 68 68 68 68 68 68 68 68 68 68 68 68 68 68 68 68 68 42 56 55 55 67 68 66 66 66 68 68 69 69 69 69 59 58 68 60 68 68 68 67 67 68 67 68 69 70 71 72 73 68 68 68 68 68 67 67 68 67 67 68 67 67 67 67 67 67 67 67 67 67 67 67 67 67 67 67 58 58 59 59 59 59 60 60 52 64 65 66 67 67 68 55 66 66 66 66 67 67 67 67 79 65 65 65 66 60 61 62 63 64 65 65 65 65 65 65 65 65 65 65 65 65 65 65 65 65 65 65 65 58 55 56 57 44 44 65 66 67 69 64 63 63 63 64 64 64 64 64 64 64 62 63 63 63 68 67 68 69 62 62 62 62 62 62 62 62 61 61 61 61 61 61 62 44 45 46 47 48 49 34 59 59 59 60 60 60 60 60 60 61 62 63 58 58 58 57 57 57 57 57 56 54 52 0 0 0 0 33 31 31 31 31 30 30 30 30 30 30 30 31 31 31 31 30 30 30 30 30 31 30 31 31 31 31 31 44 44 30 30 30 30 30 31 31 31 31 31 31 31 30 30 31 31 31 31 31 31 30 31 32 33 34 35 36 37 38 30 30 31 31 31 31 31 43 41 42 43 44 45 36 37 38 38 38 38 39 39 40 38 39 40 41 42 30 31 31 31 31 31 31 31 31 32 32 32 32 31 31 31 31 31 31 31 31 31 31 31
    0 0 0 0 0 0 0 0 0 0 0 0 0 0 0 0 0 0 0 0 0 0 0 0 0 0 0 0 0 0 0 0 0 28 28 28 28 28 28 28 28 28 0 0 0 0 0 28 28 28 28 28 28 28 28 28 17 18 19 20 21 22 23 24 25 26 27 28 29 30 31 32 33 34 35 36 37 38 39 40 41 42 43 44 45 46 47 48 49 50 51 52 53 48 49 49 50 51 52 53 82 83 84 85 53 53 53 53 53 54 55 56 0 0 0 58 58 58 57 57 26 20 22 22 25 25 25 25 60 60 60 60 60 61 61 61 75 75 44 41 41 41 42 42 43 47 47 46 46 46 86 87 60 60 19 20 20 20 18 19 18 19 20 22 23 23 18 17 19 64 64 64 64 64 64 64 64 64 64 64 64 0 0 0 0 0 0 0 0 0 0 0 0 0 0 0 0 0 0 0 35 36 21 21 22 23 24 25 26 27 28 29 30 31 32 32 32 19 36 89 67 67 67 67 67 67 67 67 67 67 67 67 67 35 36 36 36 37 36 37 38 38 39 41 42 64 64 65 66 67 68 68 68 68 67 67 67 68 68 67 67 67 61 61 67 67 68 69 67 68 68 69 69 68 68 68 68 68 68 68 68 68 68 68 68 68 68 68 68 68 68 68 68 63 63 63 68 68 69 69 69 68 68 68 68 68 68 68 68 68 68 68 68 68 68 68 68 68 68 68 68 68 68 55 68 67 66 65 65 66 69 69 69 69 71 55 56 57 60 68 68 68 68 68 68 68 66 66 67 66 67 67 68 68 68 68 67 67 67 67 67 67 68 67 67 67 67 67 67 67 67 67 67 67 67 67 67 67 67 58 58 59 59 59 59 59 60 67 64 65 66 67 67 69 66 66 66 66 66 66 67 67 67 79 65 65 65 60 61 62 63 64 65 65 65 65 65 65 65 65 65 65 65 65 65 65 65 65 65 65 65 65 58 55 56 57 44 44 65 67 68 63 64 63 63 63 64 64 64 64 64 64 64 62 63 63 63 63 67 68 62 62 62 62 62 62 62 62 62 61 61 61 61 61 61 62 45 43 44 47 48 49 34 59 59 59 60 60 60 60 60 60 61 62 63 64 58 58 57 57 57 57 57 56 52 52 0 0 0 0 30 30 30 30 30 30 30 30 30 30 30 30 31 31 31 31 30 30 30 30 30 30 31 31 31 31 31 31 31 31 30 31 30 30 31 31 31 31 31 31 31 31 31 30 31 31 31 31 31 31 31 31 32 33 34 35 36 37 38 30 30 31 31 31 31 31 42 41 42 43 43 44 36 37 38 38 38 38 38 38 38 38 44 45 30 31 31 31 31 31 31 31 31 32 32 32 32 33 48 31 31 31 31 31 31 31 31 31 31 31
    0 0 0 0 0 0 0 0 0 0 0 0 0 0 0 0 0 0 0 0 0 0 0 0 0 0 0 0 0 0 0 0 0 28 28 28 28 28 28 28 28 28 0 0 0 0 0 28 28 28 28 28 28 28 28 28 17 17 19 20 21 22 23 24 25 26 27 28 29 30 31 32 33 34 35 36 37 38 39 40 41 42 43 44 45 46 47 48 49 50 51 52 53 52 49 50 51 52 52 53 82 83 84 53 53 53 53 53 53 54 55 55 0 0 0 58 58 58 58 57 26 20 22 22 25 25 25 26 60 60 60 60 60 61 61 61 51 75 75 75 46 47 48 43 43 46 47 46 46 46 86 87 59 61 19 19 19 19 19 19 19 19 20 22 23 25 18 28 64 64 64 64 64 64 64 64 64 64 64 64 64 36 36 37 38 39 40 41 42 43 44 45 46 47 48 49 0 0 0 0 0 36 21 0 0 0 0 0 0 0 0 0 0 0 0 68 36 18 18 67 67 67 67 67 67 67 67 67 67 67 67 67 67 30 31 32 33 34 36 37 38 38 39 41 42 42 42 42 49 68 68 68 68 68 67 67 67 67 68 67 67 67 61 61 64 64 65 65 66 67 68 69 69 72 68 68 68 68 68 68 68 68 68 68 68 68 68 68 68 68 68 68 68 63 63 63 66 68 68 69 69 68 68 68 68 68 68 68 68 68 68 68 68 68 68 68 68 68 68 68 68 68 68 55 68 67 67 66 68 68 68 69 71 72 71 55 56 57 57 68 68 68 68 68 68 68 68 66 66 66 67 67 68 68 68 68 67 67 67 67 67 68 68 68 67 67 67 67 67 67 67 67 67 67 67 67 67 67 67 67 61 60 61 59 59 67 67 67 68 66 66 66 66 66 66 66 66 66 66 66 66 66 66 66 65 64 65 61 61 62 63 64 65 65 65 65 65 65 65 65 65 65 65 65 65 65 65 65 65 65 65 65 58 56 56 57 64 44 49 67 68 63 64 63 63 64 64 64 64 64 64 64 64 62 63 63 63 63 63 68 63 62 62 62 62 62 62 62 62 61 61 61 61 61 61 61 42 42 43 47 48 49 33 59 59 59 60 60 60 60 60 60 61 62 63 64 58 57 57 57 57 57 57 56 52 52 0 0 0 0 30 30 30 30 30 30 30 30 30 30 30 30 31 31 31 31 30 30 30 30 30 30 31 31 31 31 31 31 31 31 31 31 30 30 31 31 31 31 31 31 31 31 31 30 31 31 31 31 31 31 31 31 31 32 33 33 34 35 36 30 31 31 31 31 43 39 39 40 41 42 43 37 38 38 39 38 38 38 38 39 43 30 31 31 31 31 31 31 31 31 31 31 32 32 32 33 33 34 31 31 31 31 31 31 31 31 31 31 31 31
    0 0 0 0 0 0 0 0 0 0 0 0 0 0 0 0 0 0 0 0 0 0 0 0 0 0 0 0 0 0 0 0 0 28 28 28 28 28 28 28 28 28 0 0 0 0 0 28 28 28 28 28 28 28 28 28 17 17 18 28 20 21 22 23 24 26 27 28 28 29 30 31 32 32 33 34 37 38 38 40 48 41 41 44 43 44 45 49 50 50 51 52 53 53 53 54 52 52 52 52 82 83 85 53 53 53 53 53 53 54 55 55 0 0 0 58 58 58 57 57 25 21 22 24 25 25 25 26 59 60 60 60 60 61 61 61 61 60 74 75 75 47 48 48 49 45 46 46 46 46 86 87 72 60 61 55 39 39 35 19 19 19 20 21 24 25 25 26 64 64 64 64 64 64 64 65 64 64 64 64 64 0 0 0 17 18 19 20 21 22 23 24 25 26 27 28 66 67 0 0 65 65 64 37 38 0 0 0 0 0 0 0 0 0 0 0 37 18 18 67 67 67 67 67 67 67 67 67 67 67 67 67 67 67 31 32 33 34 36 36 37 38 39 40 41 42 42 42 43 69 68 68 68 68 68 67 67 67 67 67 67 61 61 61 61 67 67 67 67 67 67 67 67 68 68 68 68 68 68 68 68 68 68 68 68 68 68 68 68 68 68 68 68 64 63 65 65 66 67 68 69 68 68 68 68 68 68 68 68 68 68 68 68 68 68 68 68 68 68 68 68 68 68 55 56 64 65 65 68 68 68 68 71 72 72 54 55 68 68 68 68 68 68 68 68 68 68 68 68 66 67 66 67 68 67 68 67 67 67 67 68 68 68 68 67 67 67 67 67 67 67 67 67 67 67 67 67 67 67 67 67 60 58 58 59 43 66 67 68 66 66 66 66 66 66 66 66 66 66 66 66 66 66 66 65 63 64 65 66 67 67 68 66 66 65 65 65 65 65 65 65 65 65 65 65 65 65 65 65 65 65 65 58 56 57 58 46 47 49 67 68 51 64 64 63 63 63 63 63 64 64 64 64 62 63 63 63 63 63 64 63 62 62 62 62 62 62 62 62 61 61 61 61 61 61 61 42 42 42 47 48 49 32 59 59 59 60 60 60 60 60 60 61 62 63 64 58 57 57 57 57 57 57 57 52 52 0 0 0 0 31 30 30 30 30 30 30 30 30 30 30 30 30 31 31 31 31 30 30 30 30 31 31 31 31 31 31 31 31 31 31 31 30 30 31 31 31 31 31 31 31 31 31 31 31 31 31 31 31 31 31 31 31 31 31 31 32 32 34 30 31 31 31 31 40 39 39 40 41 42 36 37 38 38 39 39 39 40 43 30 31 31 31 31 31 31 31 31 31 31 32 32 32 33 34 34 34 31 31 31 31 31 31 31 31 31 31 31 31 31
    0 0 0 0 0 0 0 0 0 0 0 0 0 0 0 0 0 0 0 0 0 0 0 0 0 0 0 0 0 0 0 0 0 28 28 28 28 28 28 28 28 28 0 0 0 0 0 28 29 28 28 28 28 28 28 28 24 27 28 28 29 29 30 31 33 35 35 36 36 37 38 39 40 32 33 34 45 46 46 30 47 40 41 55 43 44 45 50 50 51 51 52 53 54 54 54 55 52 53 54 82 83 52 53 53 53 53 53 51 54 55 49 17 0 0 58 58 58 57 24 20 21 21 24 25 25 25 26 59 60 60 60 60 61 61 61 61 55 55 75 75 76 48 48 49 45 45 45 46 63 63 87 87 60 61 60 39 34 35 35 0 19 20 21 22 25 18 25 64 64 64 64 64 64 64 65 65 64 64 64 64 42 0 0 0 0 0 0 21 0 23 24 17 18 26 18 66 67 66 0 65 65 65 65 0 0 0 0 0 0 0 0 0 45 46 47 0 18 18 67 67 67 67 67 67 67 67 67 67 67 67 67 67 67 67 67 68 69 63 37 38 42 67 41 42 47 48 70 68 68 68 68 68 68 68 68 68 67 67 67 66 61 61 62 89 90 90 91 67 68 68 68 68 68 68 68 68 68 68 68 68 68 68 68 68 68 68 68 68 68 68 68 68 64 63 64 65 66 67 68 69 68 68 68 68 68 68 68 68 68 68 68 68 68 68 68 68 68 68 68 68 68 68 68 56 64 65 65 68 68 68 68 71 71 67 54 68 68 68 68 68 68 68 68 68 68 68 68 68 67 67 66 67 68 68 68 68 68 67 67 68 68 68 68 67 67 67 67 67 67 67 67 67 67 67 67 67 67 67 67 67 57 42 40 40 41 42 42 64 65 66 66 66 66 66 66 66 66 66 66 66 66 66 59 59 59 60 61 62 63 64 65 66 66 65 65 65 65 65 65 65 65 65 65 65 65 65 65 65 65 65 65 65 57 57 64 64 47 49 49 68 51 64 64 64 64 63 63 63 64 64 64 57 62 62 63 63 63 63 64 63 63 62 62 62 62 62 62 62 61 61 61 61 61 61 61 42 42 42 43 48 49 32 59 60 60 60 60 60 60 60 40 41 62 63 45 57 57 57 57 57 57 57 57 52 52 0 0 0 0 31 29 29 29 30 30 30 30 30 30 30 30 30 31 31 31 31 30 30 30 30 31 31 31 31 31 31 31 31 31 31 31 31 30 31 31 31 31 31 31 31 31 31 30 31 31 31 31 31 31 31 31 31 31 31 31 31 32 33 30 31 31 31 31 31 38 39 40 41 42 43 37 38 39 39 39 40 31 31 31 31 31 31 31 31 31 31 31 31 31 32 48 49 33 34 35 36 31 31 31 31 31 31 31 31 31 31 31 31 31
    0 0 0 0 0 0 0 0 0 0 0 0 0 0 0 0 0 0 0 0 0 0 0 0 0 0 0 0 0 0 0 0 0 28 28 28 28 28 28 28 28 0 0 0 0 0 0 29 29 28 28 28 28 28 28 28 26 27 28 28 29 30 31 32 34 35 36 36 37 38 39 40 41 42 44 45 45 46 29 29 31 40 68 70 54 44 41 50 51 51 52 60 61 62 62 62 49 50 53 54 82 83 87 53 53 53 53 53 53 54 55 50 17 0 0 58 58 58 57 24 20 21 21 25 25 25 25 26 59 60 60 60 61 61 61 61 61 54 54 75 76 76 76 49 49 49 45 45 46 63 63 92 92 62 59 59 56 34 35 35 0 18 19 21 24 25 22 23 64 64 63 64 64 64 64 65 65 65 64 64 64 64 0 0 0 17 18 19 20 21 22 23 24 25 26 18 66 66 66 66 65 65 65 65 37 37 38 39 40 41 42 43 44 45 46 67 67 67 67 67 66 66 67 66 67 67 67 67 67 67 67 67 67 67 67 67 68 69 70 71 66 66 67 67 76 70 71 70 68 68 68 68 68 68 68 68 68 67 67 67 62 61 62 63 90 90 90 92 68 94 68 68 68 68 68 68 68 68 68 68 68 68 68 68 68 68 68 68 68 68 68 68 64 64 64 64 65 66 67 68 69 68 68 68 68 68 68 68 68 68 68 68 68 68 68 68 68 68 68 68 68 68 68 68 64 59 65 65 66 68 68 71 71 67 67 54 68 68 68 68 68 68 68 68 68 68 68 68 68 68 67 67 67 68 68 68 68 68 68 67 68 68 68 68 68 67 67 67 67 67 67 67 67 67 67 67 67 67 67 67 67 58 42 40 40 41 43 42 44 45 45 46 66 66 66 66 66 66 66 66 66 66 66 59 59 59 60 61 62 63 64 65 66 66 65 66 65 65 65 65 65 65 65 65 65 65 65 65 65 65 65 65 65 57 63 64 64 43 43 43 68 50 64 64 64 64 63 64 64 64 63 64 57 58 62 63 63 63 63 64 63 63 62 62 62 62 62 62 62 61 61 61 61 61 61 62 29 41 42 43 44 49 32 32 60 60 60 60 60 59 39 40 41 42 44 44 45 57 57 57 57 57 57 57 52 52 0 0 0 0 31 31 30 30 30 30 30 30 30 30 30 30 30 30 31 31 31 31 30 30 31 31 31 31 31 31 31 31 31 31 31 31 31 31 31 31 31 31 31 31 31 31 31 30 30 30 30 30 31 31 31 31 31 31 31 31 31 31 31 30 31 31 31 31 31 37 38 39 40 41 42 37 38 39 46 47 31 31 31 31 31 31 31 31 31 31 31 31 31 31 31 50 32 33 34 35 31 31 31 31 31 31 31 31 31 31 31 31 31 31
    0 0 0 0 0 0 0 0 0 0 0 0 0 0 0 0 0 0 0 0 0 0 0 0 0 0 0 0 0 0 0 0 0 28 28 28 28 28 28 28 28 28 25 26 27 28 0 17 29 28 28 28 28 28 28 28 26 27 27 28 29 30 31 26 27 28 35 36 37 38 31 32 33 36 37 38 39 29 29 29 31 53 69 70 71 50 39 40 51 51 52 54 53 54 55 63 51 52 53 53 53 82 82 53 53 53 53 53 53 54 55 55 17 0 0 0 0 22 23 23 19 21 21 25 26 25 25 27 27 60 60 60 61 61 61 61 61 60 54 76 76 76 76 49 49 49 45 45 18 63 93 94 93 58 59 59 38 34 34 35 0 17 18 21 24 25 22 22 63 63 63 64 64 64 65 65 65 65 64 64 64 64 0 0 0 17 18 19 20 21 22 23 24 25 18 18 66 66 66 66 66 65 65 65 37 37 38 39 40 41 42 43 44 45 46 67 67 67 67 66 66 66 67 67 67 67 67 67 67 67 67 67 67 67 67 67 68 69 69 71 72 73 74 75 76 70 70 70 68 68 68 68 68 68 68 68 68 67 67 67 92 92 92 91 90 72 73 74 93 68 68 68 68 68 68 68 68 68 68 68 68 68 68 68 68 68 68 68 68 68 68 68 63 64 63 64 64 65 67 68 68 68 68 68 68 68 68 68 68 68 68 68 68 68 68 68 68 68 68 68 68 68 68 68 65 59 65 66 67 68 68 67 71 67 68 68 68 68 68 68 68 68 68 68 68 68 68 68 68 68 68 67 67 67 68 68 68 68 68 67 68 68 68 67 67 67 67 67 67 67 67 67 67 67 67 67 67 67 67 67 67 67 66 66 67 43 43 43 44 45 45 45 66 66 66 66 66 66 66 66 66 66 66 58 59 59 60 61 62 63 64 65 66 66 66 66 65 65 65 65 65 65 65 65 65 65 65 65 65 65 65 65 65 63 44 42 43 43 43 47 47 50 64 64 64 64 64 64 64 64 63 63 57 58 58 58 62 63 63 63 63 62 62 62 62 62 62 62 62 61 61 61 61 61 61 62 42 55 47 48 48 48 33 33 33 34 60 41 41 39 40 41 41 42 43 44 57 57 57 57 57 57 57 51 52 52 0 0 0 0 31 31 30 30 30 30 30 30 30 30 30 30 30 30 30 30 31 31 31 31 31 31 31 31 31 31 31 31 30 31 31 31 31 30 31 31 31 31 31 31 31 31 31 30 30 30 30 30 31 31 31 31 31 31 31 31 31 31 31 30 31 31 31 31 31 37 35 35 34 35 36 37 42 31 31 47 48 31 31 31 31 31 31 32 31 31 31 31 31 31 31 39 32 33 34 31 31 31 31 31 31 31 31 31 31 31 31 31 31 31
    0 0 0 0 0 0 0 0 0 0 0 0 0 0 0 0 0 0 0 0 0 0 0 0 0 0 0 0 0 0 0 0 0 28 28 28 28 28 28 28 28 28 25 26 28 28 29 29 29 28 28 28 28 28 28 28 39 20 28 28 29 22 0 26 27 28 28 28 29 21 22 23 24 26 27 28 28 29 29 29 31 53 69 70 68 38 39 40 41 41 42 43 53 54 55 56 51 51 52 53 54 55 59 83 53 53 53 53 53 54 55 55 17 0 0 0 21 22 22 19 19 21 23 25 25 25 26 27 28 28 60 61 61 61 61 60 60 60 54 76 77 77 82 49 49 49 45 45 45 63 93 94 94 58 58 58 34 34 35 35 19 18 18 23 24 24 25 25 26 63 63 64 64 64 65 65 65 65 64 64 64 64 0 0 0 17 18 18 20 21 22 23 23 18 18 18 66 66 66 66 66 65 65 65 36 37 38 39 40 41 42 43 44 44 45 67 67 67 67 66 66 66 66 66 67 67 67 67 67 67 67 67 67 67 67 67 68 68 69 70 71 73 74 74 75 75 70 70 68 68 68 68 68 68 68 68 68 68 67 67 92 92 92 91 91 72 73 93 94 68 68 68 68 68 68 68 68 68 68 68 68 68 68 68 68 68 68 68 68 68 68 68 64 64 64 64 64 65 67 67 68 68 68 68 68 68 68 68 68 68 68 68 68 68 68 68 68 68 68 68 68 68 68 68 65 64 64 67 68 68 68 49 50 51 52 53 68 68 68 68 68 68 68 68 68 68 68 68 68 68 68 67 67 67 68 67 67 67 68 67 68 68 68 67 67 67 67 67 67 67 67 67 67 67 67 67 67 67 67 67 67 67 67 67 67 68 43 43 44 45 45 45 66 66 66 66 66 66 66 66 66 66 66 57 59 59 60 61 62 63 64 65 66 66 66 66 65 65 65 65 65 65 65 65 65 65 65 65 65 65 65 65 65 63 42 42 43 42 42 46 47 50 64 64 64 64 64 64 64 64 63 63 58 61 53 55 55 63 57 58 59 60 61 48 49 62 62 62 61 61 61 61 61 61 61 62 46 48 48 48 48 48 48 33 34 34 35 36 37 38 39 40 41 42 43 44 56 57 57 57 57 57 58 62 52 52 0 0 0 0 30 31 30 30 30 30 30 31 30 30 30 30 30 30 30 30 30 31 31 31 31 31 31 31 31 32 30 29 30 30 31 39 40 31 30 31 31 31 31 42 42 42 43 30 30 30 30 30 31 31 31 31 31 31 31 31 31 31 31 31 31 31 31 31 31 35 35 35 34 39 40 31 31 31 31 31 31 31 31 31 31 31 32 46 31 31 31 31 31 31 31 39 40 41 31 31 31 31 31 31 31 31 31 31 31 31 31 31 31 31
    0 0 0 0 0 0 0 0 0 0 0 0 0 0 0 0 0 0 0 0 0 0 0 0 0 0 0 0 0 0 0 0 0 28 28 28 28 28 28 28 28 28 26 28 28 29 29 30 29 28 28 28 28 28 28 28 40 0 0 42 43 0 0 0 17 17 29 29 29 22 23 23 24 25 26 28 28 29 29 29 40 40 69 57 57 37 38 39 41 41 42 43 44 46 48 49 50 51 52 53 54 54 54 83 53 53 53 53 53 54 55 55 56 0 17 20 20 21 21 19 21 21 22 25 26 27 29 27 28 0 0 61 61 61 61 60 60 60 54 77 78 82 49 49 49 49 44 44 45 19 63 19 57 57 57 58 36 35 35 35 19 0 0 17 24 24 18 22 20 63 63 64 64 64 64 65 65 64 64 64 64 64 0 0 0 17 17 18 20 21 22 23 23 18 18 18 66 66 66 66 66 66 65 65 36 37 37 38 40 41 41 42 43 44 45 46 67 67 67 66 66 66 66 67 67 67 67 67 67 67 67 67 67 67 67 67 67 68 69 70 71 73 73 74 75 70 70 68 68 68 68 68 68 68 68 68 68 68 67 67 91 91 93 93 91 72 92 74 94 68 68 68 68 68 68 68 68 68 68 68 68 68 68 68 68 68 68 68 68 68 68 68 63 63 63 68 68 65 67 67 68 68 68 68 68 68 68 68 68 68 68 68 68 68 68 68 68 68 68 68 68 68 68 68 68 67 61 67 67 68 69 49 50 72 73 53 68 68 68 68 68 68 68 68 68 68 68 68 68 85 68 67 68 68 68 68 68 67 68 67 67 67 68 67 67 67 67 67 67 67 67 67 67 67 67 67 67 67 67 67 67 67 67 67 67 67 44 44 44 45 45 45 66 66 66 66 66 66 66 66 66 66 66 57 58 59 60 61 62 63 64 65 65 66 66 66 65 65 65 65 65 65 65 65 65 65 65 65 65 65 65 65 65 41 42 42 43 42 46 46 48 50 64 64 64 64 64 64 64 64 64 51 52 53 54 55 55 56 57 58 59 60 61 48 49 50 61 62 61 61 61 61 61 62 61 62 48 48 48 48 49 49 48 49 34 34 35 36 37 38 39 40 41 42 43 43 56 57 57 57 57 58 58 62 52 52 0 0 0 0 30 31 31 31 31 31 31 31 31 31 30 30 30 30 30 30 30 30 31 31 31 31 31 31 31 32 32 33 34 35 36 37 38 39 40 41 42 43 43 43 42 43 44 44 30 30 30 30 31 31 31 31 31 31 31 31 31 31 31 31 31 31 31 31 31 34 35 36 37 31 31 31 31 31 31 31 31 31 31 31 31 31 31 31 31 31 31 31 31 31 31 39 40 41 31 31 31 31 31 31 31 31 31 31 31 31 31 31 31 31
    0 0 0 0 0 0 0 0 0 0 0 0 0 0 0 0 0 0 0 0 0 0 0 0 0 0 0 0 0 0 0 0 0 28 28 28 28 28 28 28 28 28 28 28 29 29 30 31 0 28 28 28 28 28 28 28 42 42 0 0 0 0 0 0 0 17 29 52 52 53 23 23 24 25 27 28 28 29 29 29 57 57 57 57 57 37 38 39 40 41 42 43 44 45 48 49 50 51 61 61 71 71 71 83 53 53 53 53 53 54 55 55 56 17 17 18 20 20 20 21 21 22 24 25 26 27 29 30 31 0 44 61 61 61 61 60 54 54 54 46 47 48 49 49 49 49 43 44 20 20 19 20 56 56 35 36 36 36 37 18 19 0 22 17 24 24 24 24 20 21 63 64 64 64 64 65 65 64 64 64 64 64 0 0 0 0 17 18 19 20 21 22 23 18 18 18 45 46 66 66 66 66 65 65 36 36 37 38 39 40 41 42 43 44 45 66 67 67 67 66 66 66 66 67 67 67 67 67 67 67 67 67 67 67 67 67 67 68 69 70 71 70 73 74 75 70 70 68 68 68 68 68 68 68 68 68 68 68 67 67 91 91 93 91 91 92 73 74 68 68 68 68 68 68 68 68 68 68 68 68 68 68 68 68 68 68 68 68 68 68 68 68 60 61 68 68 69 67 67 67 68 68 68 68 68 68 68 68 68 68 68 68 68 68 68 68 68 68 68 68 68 68 68 68 68 67 67 68 68 68 69 49 71 73 73 73 68 68 68 68 68 68 68 68 68 68 68 68 89 87 68 85 68 68 68 67 68 67 67 67 67 67 67 67 67 67 67 67 67 67 67 67 67 67 67 67 67 67 67 67 67 67 67 67 67 67 66 66 51 45 46 66 66 66 66 66 66 66 66 66 66 66 66 57 59 59 60 61 62 62 62 63 64 65 65 65 65 65 65 65 65 65 65 65 65 65 65 65 65 65 65 65 65 41 42 42 43 45 46 48 48 49 50 41 64 64 64 64 64 64 50 51 52 52 53 55 55 56 57 58 59 60 60 61 49 50 61 62 61 62 61 61 61 62 61 48 48 48 49 48 49 50 51 52 33 34 35 36 37 38 39 59 41 42 43 43 56 57 57 57 57 57 58 62 52 52 0 0 0 0 30 31 31 31 31 31 31 31 31 31 32 30 30 30 30 30 30 30 30 31 31 31 31 31 31 31 47 48 49 50 51 52 53 38 39 39 40 41 42 43 44 45 46 47 46 30 30 30 31 31 31 31 31 31 31 31 31 31 31 31 31 31 31 31 31 32 30 31 31 31 31 31 31 31 31 31 31 31 31 31 31 31 31 31 31 31 31 31 31 31 31 39 40 31 31 31 31 31 31 31 31 31 31 31 31 31 31 31 31 31
    0 0 0 0 0 0 0 0 0 0 0 0 0 0 0 0 0 0 0 0 0 0 0 0 0 0 0 0 0 0 0 0 0 28 28 28 28 28 28 28 28 28 28 29 29 30 31 32 0 28 28 28 28 28 28 28 28 28 28 28 28 28 28 0 0 17 51 52 53 53 23 24 24 25 26 27 28 29 29 29 57 57 57 57 51 52 52 52 40 41 42 76 44 45 46 59 60 60 61 61 60 68 69 70 53 53 53 53 53 54 55 56 56 17 18 19 20 21 20 21 22 23 24 25 26 27 28 30 31 0 44 61 61 61 61 60 54 54 54 47 47 47 48 48 49 49 43 25 21 21 26 48 33 34 35 36 36 37 35 19 21 0 0 17 17 18 19 22 20 20 64 64 64 65 64 65 65 64 64 64 64 64 0 0 0 0 17 0 19 20 21 22 21 18 18 18 46 45 47 48 48 56 61 29 32 33 37 35 36 37 38 39 41 41 42 43 42 67 67 66 66 66 66 67 67 67 67 67 67 67 67 67 67 67 67 64 67 68 67 67 68 69 70 70 70 70 70 68 68 68 68 68 68 68 68 68 68 68 67 67 87 87 88 91 91 91 74 93 93 68 68 68 68 68 68 68 68 68 68 68 68 68 68 68 68 68 68 68 68 68 68 68 68 68 68 68 69 67 67 67 68 68 68 68 68 68 68 68 68 68 68 68 68 68 68 68 68 68 68 68 68 68 68 68 68 67 67 67 68 68 68 49 68 73 73 71 68 68 68 68 68 68 68 68 68 68 68 68 67 67 68 67 68 67 68 67 67 67 67 67 67 67 67 67 67 67 67 67 67 67 67 67 67 67 67 67 67 67 67 67 67 67 67 68 67 66 66 66 51 52 52 66 66 66 66 66 66 66 66 66 66 66 66 58 59 59 59 60 62 62 63 64 64 64 65 64 65 65 65 65 65 65 65 65 65 65 65 65 65 65 65 65 40 41 42 42 43 45 46 48 48 50 50 51 64 64 64 64 64 52 51 51 51 52 53 55 55 56 57 58 58 59 60 61 49 50 51 51 61 62 61 61 61 47 48 49 49 49 49 50 50 51 52 52 33 34 35 36 37 38 51 59 46 46 43 58 56 56 56 57 57 57 58 62 52 52 52 0 0 0 30 30 31 31 31 31 31 31 31 31 33 34 30 30 30 30 30 30 30 30 31 31 31 31 31 31 31 46 47 48 50 51 51 52 54 55 56 40 41 42 43 44 45 46 46 30 30 30 31 31 31 31 31 31 31 31 31 31 31 31 31 31 31 31 31 31 31 31 31 31 31 31 31 31 31 31 31 31 31 31 31 31 31 31 31 31 31 31 31 31 39 39 31 31 31 31 31 31 31 31 31 31 31 31 31 31 31 31 31 31
    0 0 0 0 0 0 0 0 0 0 0 0 0 0 0 0 0 0 0 0 0 0 0 0 0 0 0 0 0 0 0 0 0 28 28 28 28 28 28 28 28 28 28 29 29 30 31 32 0 28 28 28 28 28 28 28 28 28 28 28 28 29 29 29 28 28 19 29 21 54 55 28 28 28 28 28 28 29 29 29 57 58 58 0 0 50 51 51 52 42 43 44 45 46 48 58 59 60 0 0 0 0 0 0 0 53 53 53 53 54 55 56 56 0 18 19 20 21 20 21 22 23 24 25 25 27 28 30 30 31 32 44 44 63 53 54 54 54 54 54 47 47 47 47 48 49 45 28 21 22 24 32 33 33 35 35 36 36 35 20 21 21 22 22 18 18 19 19 19 20 0 0 65 65 64 65 65 64 64 64 64 0 0 0 0 0 0 18 19 20 21 20 21 18 44 45 45 46 48 48 30 29 30 33 32 36 37 38 37 37 41 42 41 42 43 44 47 47 47 66 66 66 66 67 67 67 67 67 67 67 67 67 67 67 67 64 67 68 67 70 69 70 70 70 70 52 53 68 68 68 68 68 68 68 68 68 68 68 67 67 87 87 88 90 91 91 74 69 69 68 68 68 68 68 68 68 68 68 68 68 68 68 68 68 68 68 68 68 68 68 68 68 68 68 68 68 69 67 67 67 68 68 68 68 68 68 68 68 68 68 68 68 68 68 68 68 68 68 68 68 68 68 68 68 68 67 67 67 68 68 68 49 68 69 71 71 68 68 68 68 68 68 68 68 68 68 68 68 67 67 67 67 67 67 68 68 67 67 67 67 67 67 67 67 67 67 67 67 67 67 67 67 67 67 67 67 67 67 67 67 67 67 61 62 62 67 67 66 51 52 52 52 67 66 66 66 66 66 66 67 50 55 56 59 59 59 59 60 60 60 63 64 64 64 64 64 64 65 65 65 65 65 65 65 65 65 65 65 65 65 65 65 40 41 42 43 43 48 48 48 48 50 53 53 53 56 56 56 56 51 51 51 51 51 52 55 55 55 56 56 57 61 59 54 54 53 54 55 55 56 50 51 50 48 48 49 50 50 50 51 51 51 52 53 45 46 47 48 37 38 59 59 59 46 58 58 55 55 56 56 57 57 58 62 52 52 52 52 0 0 30 30 31 31 31 31 31 31 31 31 32 33 34 30 30 30 30 30 30 30 30 31 31 31 31 31 31 31 46 47 48 49 50 51 52 53 54 55 40 41 42 43 44 45 45 46 30 31 31 31 31 31 31 31 31 31 31 31 31 31 31 31 31 31 31 31 31 31 31 31 31 31 31 31 31 31 31 31 31 31 31 31 31 31 31 31 31 31 31 31 39 31 31 31 31 31 31 31 31 31 31 31 31 31 31 31 31 31 31 31
    0 0 0 0 0 0 0 0 0 0 0 0 0 0 0 0 0 0 0 0 0 0 0 0 0 0 0 0 0 0 0 0 0 28 28 28 28 28 28 28 28 28 28 29 29 30 31 32 33 0 29 28 28 28 28 28 28 28 28 28 28 28 29 28 28 28 28 28 51 54 55 28 28 28 28 28 28 29 29 29 29 0 0 0 0 0 0 0 50 51 44 45 46 47 50 52 0 0 0 0 0 0 0 0 0 0 52 53 53 54 0 56 56 56 18 20 20 21 21 22 23 24 24 25 25 26 30 31 31 32 32 43 44 44 73 75 69 54 54 54 46 46 46 46 46 49 45 25 25 22 23 31 32 33 34 35 36 36 22 22 21 21 21 21 18 18 19 17 18 20 21 23 43 65 64 64 64 64 64 64 64 0 34 0 0 0 17 18 19 20 21 22 23 24 45 46 46 28 29 30 31 32 33 34 35 36 37 38 39 40 41 42 43 44 45 46 47 48 47 66 66 67 67 67 67 67 67 67 67 67 67 67 67 67 67 67 67 68 69 70 70 70 70 70 71 52 53 68 68 68 68 68 68 68 67 67 67 67 67 89 90 91 93 90 91 91 91 69 69 69 68 68 68 68 68 68 68 68 68 68 68 68 68 68 68 68 68 68 68 68 68 68 68 68 68 68 69 67 67 67 68 68 68 68 68 68 68 68 68 68 68 68 68 68 68 68 68 68 68 68 68 68 68 68 68 67 67 67 68 68 49 49 68 69 70 50 68 68 68 68 68 68 68 68 68 68 68 68 67 87 87 87 67 68 68 68 68 67 67 67 67 67 67 67 67 67 67 67 67 67 67 67 67 67 67 67 67 67 67 67 67 66 63 62 62 69 67 52 51 52 51 51 51 66 66 66 66 66 66 53 54 55 58 61 59 59 59 60 60 60 63 63 64 64 64 64 64 65 65 65 65 65 65 65 65 65 65 65 65 65 65 65 41 42 43 46 47 48 48 48 49 50 53 53 53 56 56 56 57 51 51 51 51 52 52 55 55 55 55 56 56 56 56 54 54 54 54 55 56 57 49 50 51 50 49 50 61 61 61 60 51 51 52 44 45 46 47 48 48 38 59 59 59 65 58 58 55 55 55 56 57 57 58 61 52 52 52 52 52 0 30 30 30 31 31 31 31 31 31 31 31 32 33 34 35 30 30 30 30 30 30 30 31 31 31 31 31 31 31 51 47 48 49 50 51 52 53 54 55 56 57 41 43 43 44 45 46 47 31 31 31 31 31 31 31 31 31 31 31 31 31 31 31 31 31 31 31 31 31 31 31 31 31 31 31 31 31 31 31 31 31 31 31 31 31 31 31 31 31 31 31 31 31 31 31 31 31 31 31 32 31 31 31 31 31 31 31 31 31 51
    0 0 0 0 0 0 0 0 0 0 0 0 0 0 0 0 0 0 0 0 0 0 0 0 0 0 0 0 0 0 0 0 0 28 28 28 28 28 28 28 28 28 28 29 29 29 31 32 33 33 29 28 28 28 28 28 28 28 0 0 0 28 28 28 28 28 28 28 51 55 51 52 52 28 28 28 28 29 29 29 0 0 0 0 0 0 0 0 0 0 0 0 0 0 0 0 0 0 0 0 0 0 0 0 0 0 52 53 53 54 55 56 56 56 18 20 20 21 22 22 23 23 24 19 19 25 26 31 32 33 42 43 44 44 74 75 76 77 77 77 46 45 44 45 48 49 45 24 25 25 30 32 32 33 34 35 33 34 24 22 19 20 20 21 21 22 19 18 22 23 24 23 43 65 64 44 64 64 48 48 64 33 34 0 0 0 17 18 19 20 21 22 23 24 24 26 27 28 29 30 31 32 33 34 35 36 37 38 39 40 41 42 43 44 45 46 47 47 48 48 66 67 67 67 67 67 67 67 67 67 67 67 67 67 67 66 67 68 68 70 70 71 73 73 72 72 53 68 68 68 68 68 67 67 67 67 67 67 67 89 91 92 90 90 91 72 73 68 68 68 68 68 68 68 68 68 68 68 68 68 68 68 68 68 68 68 68 68 68 68 68 68 67 68 68 67 68 67 67 67 68 68 68 68 68 68 68 68 68 68 68 68 68 68 68 68 68 68 68 68 68 68 68 68 68 67 67 67 47 49 49 49 68 69 70 47 68 68 68 68 68 68 68 68 68 68 68 68 68 87 87 87 64 67 68 68 67 67 67 67 67 67 67 67 67 67 67 67 67 67 67 67 67 67 67 67 67 67 67 67 67 63 63 62 69 70 69 52 52 52 52 50 50 51 51 51 52 52 52 53 55 58 58 60 59 59 59 59 59 62 63 63 64 64 64 64 64 65 65 65 65 65 65 65 65 65 65 65 65 65 65 65 42 43 44 46 46 48 48 48 49 50 53 53 54 56 56 57 58 50 51 51 51 52 52 63 63 63 63 62 62 56 56 54 54 54 54 55 56 57 49 50 51 52 49 61 61 61 61 60 60 51 52 44 45 46 47 47 48 48 59 59 59 65 65 58 45 54 55 56 56 57 56 60 52 52 52 52 52 52 30 30 30 30 30 31 31 31 31 31 31 31 32 33 34 35 30 30 30 30 30 30 30 30 31 31 31 31 31 31 31 51 48 49 50 51 52 53 54 55 56 57 41 42 43 44 45 31 31 31 31 31 31 31 31 30 31 31 31 31 31 31 31 31 31 31 31 31 31 31 31 31 31 31 31 31 31 31 31 31 31 31 31 31 31 31 31 31 31 31 31 31 31 31 31 31 31 31 32 33 34 31 31 31 31 31 31 31 31 31
    0 0 0 0 0 0 0 0 0 0 0 0 0 0 0 0 0 0 0 0 0 0 0 0 0 0 0 0 0 0 0 0 0 28 28 28 28 28 28 28 28 28 28 28 29 29 29 32 33 33 29 29 28 28 28 28 0 0 0 0 0 28 28 28 28 28 28 28 51 55 55 52 29 29 28 29 28 64 65 29 0 0 0 0 0 0 0 0 0 0 0 0 0 0 0 0 0 0 0 0 0 0 0 0 0 0 52 53 53 54 55 56 56 56 20 21 21 21 21 22 24 24 0 0 0 25 26 22 24 25 42 43 43 43 74 75 76 76 76 77 77 42 42 43 46 40 40 45 25 25 21 32 32 48 49 50 33 34 26 20 19 19 19 19 19 19 19 19 19 19 0 0 0 32 32 32 32 33 33 36 34 34 0 0 0 0 17 18 19 20 20 22 23 24 24 26 27 28 29 30 31 32 32 34 35 36 37 37 38 40 41 42 42 44 45 46 47 47 48 48 49 67 67 67 67 67 67 67 67 67 67 67 67 67 67 66 67 67 68 69 70 71 72 73 73 73 72 96 68 68 68 68 67 67 67 86 87 88 89 89 91 92 93 69 70 72 67 68 68 68 68 68 69 69 68 68 68 68 68 68 68 68 68 68 68 68 68 68 68 68 68 68 67 67 67 67 68 65 66 68 70 68 68 68 68 68 68 68 68 68 68 68 68 68 68 68 68 68 68 68 68 68 68 68 67 67 67 67 51 51 49 49 68 69 70 70 51 68 68 68 68 68 68 68 68 68 68 68 68 87 67 66 67 67 67 68 67 68 68 68 67 67 67 67 67 67 67 67 67 67 67 67 67 67 67 67 67 67 67 67 67 63 52 53 57 52 53 52 58 59 55 49 50 51 51 53 53 53 54 54 55 58 59 59 58 59 59 57 56 57 63 63 64 32 33 34 35 38 54 55 56 39 39 65 65 65 65 53 54 55 40 41 41 42 64 64 64 48 48 49 50 51 53 53 54 56 56 57 58 59 50 51 51 52 63 63 63 63 63 62 62 62 56 55 55 54 55 55 56 57 49 50 51 52 49 61 61 61 61 60 60 51 52 44 44 45 46 47 47 48 59 59 59 45 65 58 54 54 55 56 56 57 57 57 52 52 52 52 52 52 30 30 30 30 30 30 31 31 31 31 31 31 31 32 33 34 35 36 30 30 30 30 30 30 30 31 31 31 31 31 31 31 47 47 48 49 50 51 52 53 54 55 56 41 42 43 31 31 31 31 31 31 31 31 31 31 31 30 31 31 31 31 31 31 31 31 31 31 31 31 31 31 31 31 31 31 31 31 31 31 31 31 31 31 31 31 31 31 31 31 31 31 31 31 31 31 31 32 32 33 34 31 31 31 31 31 31 31 31 31
    0 0 0 0 0 0 0 0 0 0 0 0 0 0 0 0 0 0 0 0 0 0 0 0 0 0 17 18 0 0 0 0 0 28 28 28 28 28 29 29 30 31 32 33 28 28 29 37 38 40 29 28 28 28 28 28 0 0 0 0 0 28 28 28 28 28 28 28 59 54 52 29 29 29 29 29 64 65 66 30 0 0 0 0 0 0 0 0 0 0 0 0 0 0 0 0 0 0 0 0 0 0 0 0 0 0 52 53 53 54 55 56 56 56 25 21 22 0 0 0 0 0 0 0 0 25 25 23 24 41 42 42 43 43 74 75 76 76 76 42 42 42 43 43 43 40 40 40 31 25 20 31 48 49 49 50 50 41 25 18 19 19 19 19 0 0 0 19 19 19 0 0 0 0 0 30 30 30 31 31 34 34 0 0 0 38 40 41 42 43 43 45 23 24 24 25 27 28 29 30 31 31 32 34 35 36 36 37 38 39 40 41 42 43 44 45 46 47 48 48 66 66 67 67 67 67 67 67 67 67 67 67 67 67 67 66 67 67 68 69 70 71 72 73 73 73 74 78 96 68 68 68 68 67 66 86 87 88 89 90 91 92 92 69 70 69 67 67 68 82 76 68 76 76 68 68 68 68 68 68 68 68 68 68 68 68 68 68 68 68 68 68 67 67 67 67 68 68 67 68 68 68 68 68 68 68 68 68 68 68 68 68 68 68 68 68 68 68 68 68 68 68 68 68 67 67 67 47 49 49 49 50 70 69 69 70 67 68 68 68 68 68 68 68 68 68 68 68 68 68 67 67 67 67 67 68 67 67 67 67 67 67 67 67 67 67 67 67 67 67 67 67 67 67 67 67 67 67 67 67 67 63 52 53 52 52 52 52 59 59 60 61 61 62 53 54 64 50 51 45 46 46 63 64 51 58 52 66 66 66 66 65 63 53 34 54 54 55 55 55 56 57 57 46 45 49 49 50 51 52 40 65 65 65 64 64 64 64 48 49 50 51 53 53 54 55 56 57 58 59 50 51 51 52 63 63 63 63 63 62 62 62 56 55 55 55 55 55 56 57 49 50 51 51 49 61 61 61 61 60 60 51 42 44 44 44 45 46 46 46 45 59 59 45 58 58 54 54 55 56 56 56 57 57 52 52 52 52 52 0 30 30 30 30 30 30 30 31 31 31 31 31 31 31 32 33 34 35 36 37 30 30 30 30 30 30 30 31 31 31 31 31 31 46 47 48 49 50 51 52 53 54 55 56 57 31 31 31 31 31 31 31 31 31 31 31 30 30 31 31 31 31 31 31 31 31 31 31 31 31 31 31 31 31 31 31 31 31 31 31 31 31 31 31 31 31 31 31 31 31 31 31 31 31 31 31 31 32 33 34 35 36 31 31 31 31 31 31 31 31
    0 0 0 0 0 0 0 0 0 0 0 0 0 0 0 0 0 0 0 0 0 0 0 0 0 17 18 18 0 0 0 0 0 28 28 28 28 29 29 30 30 32 33 33 36 37 37 38 39 41 28 28 28 28 28 49 0 0 0 0 28 28 28 28 28 28 28 28 58 59 52 53 53 54 29 29 64 65 66 35 0 0 0 0 0 0 0 0 0 0 0 0 0 0 0 0 0 0 59 92 93 58 58 53 53 53 53 53 53 54 55 56 56 56 25 27 53 54 0 0 0 0 0 0 0 0 22 23 24 41 41 42 42 42 74 75 76 76 43 43 43 42 42 43 40 40 40 40 41 33 35 36 48 49 50 50 50 39 40 63 18 17 0 17 18 0 0 19 19 19 20 20 0 30 31 31 32 31 31 35 34 37 39 40 41 41 41 41 42 46 46 37 37 39 40 51 52 54 44 45 46 46 56 49 50 50 51 53 54 55 55 57 58 59 60 60 61 62 62 63 65 66 66 67 67 67 67 67 67 67 67 67 67 66 66 92 93 94 95 96 96 71 72 73 73 74 95 67 78 78 80 82 82 82 66 67 67 88 89 90 91 92 93 70 69 63 80 81 83 84 85 76 76 76 76 68 68 68 68 68 68 68 68 68 68 68 68 68 68 68 68 68 67 66 67 68 68 68 68 67 68 68 68 68 68 68 68 68 68 68 68 68 68 68 68 68 68 68 68 68 68 68 68 68 67 67 67 49 49 49 52 50 68 69 69 69 68 68 68 68 68 68 68 68 69 68 68 68 68 68 68 85 85 67 67 67 67 68 68 67 67 67 67 67 67 67 68 67 68 67 67 67 67 67 67 67 67 67 67 66 67 67 67 52 57 52 52 52 55 55 60 60 60 61 61 62 64 65 59 66 67 62 63 64 65 56 66 66 66 66 66 65 65 65 54 38 54 38 38 55 56 58 58 46 45 50 50 51 51 39 40 65 65 65 65 64 64 64 64 49 50 52 53 53 54 55 56 57 58 59 50 51 52 52 63 63 63 63 63 62 62 62 56 55 55 56 55 56 56 57 49 50 51 51 49 62 61 61 61 60 60 51 41 42 43 37 38 45 45 45 46 44 44 44 59 58 51 52 53 54 56 56 57 57 53 52 52 0 0 0 30 30 30 30 30 30 30 31 31 31 31 31 31 31 31 32 33 34 35 36 37 30 30 30 30 30 30 31 31 31 31 31 31 31 46 48 49 49 50 52 53 54 55 55 31 31 31 31 31 31 31 31 31 31 31 31 30 30 31 31 31 31 31 31 31 31 31 31 31 31 31 31 31 31 31 31 31 31 31 31 31 31 31 31 31 31 31 31 31 31 31 31 31 31 31 31 31 32 33 34 35 36 31 31 31 31 31 31 31 31
    0 0 0 0 0 0 0 0 0 0 0 0 0 0 0 0 0 0 0 0 0 0 0 0 0 17 18 18 0 0 0 0 0 28 28 28 28 29 30 31 30 32 33 28 28 28 38 39 40 41 28 28 28 28 28 28 28 28 28 28 28 28 28 28 28 28 28 28 57 58 60 61 62 63 64 64 33 34 34 35 0 0 0 0 0 0 0 0 0 0 0 0 0 0 0 0 0 59 59 60 86 57 58 53 53 53 53 53 53 54 54 55 56 56 26 27 28 0 0 0 0 0 0 0 0 0 22 23 24 25 42 42 43 43 74 75 76 76 76 43 0 0 28 39 40 40 40 40 41 25 35 47 48 49 50 50 50 40 40 63 63 63 63 17 18 18 0 0 19 19 19 19 19 19 20 21 22 23 24 25 26 27 39 40 40 41 41 41 42 35 36 37 37 37 38 41 42 43 44 44 44 45 46 49 50 50 51 52 65 66 66 66 66 67 59 60 60 61 62 63 64 65 66 67 67 67 67 73 74 76 59 60 81 81 81 81 82 83 84 85 86 87 88 73 73 74 95 96 96 96 80 81 82 82 82 67 67 88 89 90 91 92 69 69 69 70 80 81 82 84 85 76 76 76 77 68 68 68 68 68 68 68 68 68 68 68 68 68 68 68 68 68 65 66 67 68 68 69 68 68 68 68 68 68 68 68 68 68 68 68 68 68 68 68 68 68 68 68 68 68 68 68 68 68 27 67 67 51 49 48 49 50 68 68 68 69 68 68 68 68 68 68 68 68 68 68 68 68 69 68 68 85 85 67 67 68 68 68 68 68 67 67 67 67 67 67 68 68 67 67 67 67 67 67 67 66 66 66 66 51 67 67 67 67 67 67 67 54 55 60 60 61 61 61 61 62 62 62 62 66 67 67 64 65 55 66 66 66 66 66 66 66 65 65 65 38 38 38 38 55 38 44 47 44 44 44 44 45 38 39 40 65 65 65 65 64 64 64 64 49 50 52 52 53 54 55 56 57 58 49 50 51 52 52 63 63 63 63 63 62 62 62 56 55 55 54 55 56 56 58 59 50 51 51 49 62 61 61 61 60 51 51 51 52 53 37 38 44 45 45 45 46 46 47 47 50 51 52 53 54 55 56 57 57 53 52 52 0 0 0 30 30 30 30 30 30 30 30 31 31 31 31 31 31 31 31 32 33 34 35 36 37 38 30 30 30 30 30 31 31 31 31 31 31 51 51 52 53 54 53 53 54 58 31 31 31 31 31 31 31 31 31 31 31 31 31 30 30 30 31 31 31 31 31 31 31 31 31 31 31 31 31 31 31 31 31 31 31 31 31 31 31 31 31 31 31 31 31 31 31 31 31 31 31 31 31 32 32 33 34 35 36 37 31 31 31 31 31 31 31
    0 0 0 0 0 0 0 0 0 0 0 0 0 0 0 0 0 0 0 0 0 0 0 0 0 17 18 18 0 0 0 0 0 28 28 28 28 29 30 29 30 29 32 33 33 34 35 38 40 41 28 28 28 28 28 28 28 28 28 28 28 28 28 28 28 28 28 55 56 57 58 59 62 63 64 64 64 65 35 35 35 0 0 0 0 0 0 0 41 41 41 53 43 45 46 57 57 58 80 80 81 82 83 53 53 53 53 53 53 54 54 54 54 54 54 54 0 0 0 0 0 0 0 0 0 21 22 23 24 25 42 43 43 43 43 44 76 75 44 61 0 0 28 39 40 40 41 41 41 24 47 48 48 49 50 50 51 29 40 63 63 63 63 17 17 0 0 0 19 19 20 19 22 23 24 21 22 23 22 26 26 40 40 40 40 40 41 41 42 42 35 37 37 38 38 39 40 43 44 44 45 46 46 49 50 50 51 64 65 66 66 66 66 67 68 59 60 61 62 63 64 65 66 67 68 69 70 71 71 73 74 75 82 82 81 81 94 94 94 94 93 93 86 87 88 94 95 96 90 96 73 74 69 69 69 69 65 90 67 84 75 76 69 69 68 67 68 68 67 75 75 76 76 76 76 77 75 76 67 68 68 68 68 68 68 68 68 68 68 68 68 67 65 68 68 68 69 69 68 69 68 68 68 68 68 68 68 68 68 68 68 68 68 68 68 68 68 68 68 68 68 26 26 27 68 68 68 68 68 68 50 50 51 51 68 68 68 68 68 68 68 68 68 68 68 68 68 68 68 68 68 68 68 40 68 68 68 68 68 68 67 67 67 67 67 67 68 66 66 66 65 67 68 69 70 71 66 66 74 67 67 67 67 67 67 67 67 67 58 60 61 61 61 61 61 62 61 62 62 62 62 63 52 54 55 66 66 66 66 66 66 66 65 65 65 54 37 37 38 57 57 59 47 43 43 44 44 45 40 39 40 65 65 65 65 64 64 64 64 51 52 51 52 53 54 55 56 57 58 49 50 51 52 52 63 63 63 63 63 62 62 62 56 55 54 54 55 55 56 58 50 51 51 52 52 54 63 55 58 56 57 45 40 47 49 40 41 43 44 45 45 46 46 47 48 50 51 52 53 54 55 56 57 58 54 52 52 0 0 0 30 30 30 30 30 30 30 30 31 31 31 31 31 31 31 31 31 32 34 34 35 36 38 39 30 30 30 30 30 31 31 31 31 31 31 50 51 52 53 54 31 31 31 31 31 31 31 31 31 31 31 31 31 31 31 32 33 30 30 31 31 31 31 31 31 31 31 31 31 31 31 31 31 31 31 31 31 31 31 31 31 31 31 31 31 31 31 31 31 31 31 31 31 31 31 31 31 32 32 33 35 36 37 31 31 31 31 31 31 31
    0 0 0 0 0 0 0 0 0 0 0 0 0 0 0 0 0 0 0 0 0 0 0 0 0 0 0 0 0 0 0 0 0 28 28 28 28 28 28 29 29 29 29 33 33 34 34 37 38 41 28 28 28 28 28 28 28 28 28 28 28 28 28 28 28 23 54 55 56 57 57 58 62 63 63 63 64 64 35 66 35 0 0 0 0 0 0 51 77 77 77 48 81 82 81 80 80 80 81 81 82 83 85 53 53 53 53 53 53 54 54 54 54 54 55 56 0 0 0 0 0 0 0 20 21 21 22 23 24 25 26 43 43 44 67 68 69 75 44 44 32 27 28 39 40 40 41 41 41 24 47 48 48 49 49 50 51 29 62 63 63 63 63 64 65 0 0 0 17 19 19 19 22 23 24 24 22 23 27 28 27 41 40 40 41 41 41 41 41 41 35 41 42 39 38 39 40 43 44 45 46 52 46 50 50 51 51 65 66 66 66 66 67 67 68 68 60 61 62 63 64 65 66 67 68 69 69 70 71 75 75 76 77 81 81 94 94 94 94 94 93 93 93 87 88 92 92 96 96 96 73 74 0 71 61 62 65 65 65 66 84 85 68 68 68 68 68 68 68 68 76 77 59 59 59 82 82 84 84 86 87 68 69 68 68 68 68 68 68 69 69 68 68 68 68 68 68 68 68 68 68 68 68 68 68 68 68 68 68 68 68 68 68 68 68 68 68 68 36 17 17 17 27 68 68 68 68 68 68 68 68 68 68 68 68 67 67 68 67 68 68 68 68 68 68 68 68 68 68 68 68 68 68 68 68 68 68 68 68 68 67 67 68 67 59 59 68 67 65 66 67 67 67 67 71 71 72 73 52 67 67 67 67 67 67 67 67 67 67 59 61 61 61 61 62 57 58 61 61 61 62 52 52 54 55 66 66 66 66 66 66 66 65 65 65 54 53 53 53 57 58 59 59 59 60 62 63 63 40 41 40 65 65 65 65 64 64 64 64 51 52 51 52 53 54 55 56 57 58 48 49 51 51 52 53 63 63 63 63 62 62 56 54 54 54 54 54 55 55 56 50 51 51 52 53 54 54 55 56 57 44 45 47 39 39 40 43 57 59 59 59 59 59 47 48 49 51 52 53 54 55 57 57 57 59 52 52 0 0 0 30 30 30 30 30 30 30 30 30 31 31 31 31 31 31 31 31 31 30 30 30 31 31 31 31 31 31 30 30 31 31 31 31 31 31 50 51 51 31 31 31 31 31 31 31 31 31 31 31 31 31 31 31 31 32 33 30 31 30 31 31 31 31 31 31 31 42 43 43 44 31 31 31 31 31 31 31 31 31 31 31 31 31 31 31 31 31 31 31 31 31 31 31 31 31 31 31 31 32 32 32 32 33 31 31 31 31 31 31 31
    0 0 0 0 0 0 0 0 0 0 0 0 0 0 0 0 0 0 0 0 0 0 0 0 0 0 0 17 0 0 0 0 0 28 28 28 28 28 28 29 29 28 28 28 29 29 0 38 38 29 28 28 28 28 28 28 28 29 28 28 28 28 28 24 23 24 26 27 28 28 28 28 29 30 31 34 34 35 35 36 37 30 0 0 0 0 0 53 46 47 47 48 52 53 52 52 80 80 81 82 83 83 85 53 53 53 53 53 53 54 54 55 56 56 57 57 57 57 57 33 34 0 0 19 20 21 22 23 24 25 26 44 44 44 68 68 69 44 44 45 33 38 40 39 40 42 43 42 41 46 47 48 48 49 49 50 51 41 62 63 63 63 63 42 42 0 0 17 18 19 20 21 22 23 24 25 25 26 27 28 28 41 40 40 41 41 41 41 41 41 36 37 38 39 40 42 43 44 44 45 46 47 48 49 50 51 65 65 66 66 66 66 67 67 68 68 68 68 64 65 66 74 75 75 68 69 69 70 75 75 76 77 77 80 67 67 67 67 67 67 67 68 68 87 88 92 96 96 96 96 73 73 71 71 71 62 64 64 65 66 95 85 67 67 68 68 68 68 68 68 68 59 59 58 59 82 83 84 85 87 87 88 69 69 69 68 69 69 69 69 68 68 68 68 68 68 68 68 68 68 68 68 68 68 68 68 68 68 68 68 68 68 68 68 68 68 68 68 36 17 17 18 68 68 68 68 68 68 68 68 68 68 68 67 68 67 67 67 67 68 68 68 68 68 68 68 68 68 68 68 68 68 68 68 68 68 68 68 68 67 67 67 66 58 59 59 60 62 65 66 67 67 67 67 71 72 73 53 52 67 67 67 67 67 67 67 67 67 67 58 61 61 61 56 56 57 58 61 61 62 62 52 52 54 55 56 66 66 66 66 66 66 65 65 65 60 60 60 53 59 60 59 60 47 60 61 63 64 41 41 38 65 65 65 65 64 64 64 64 51 52 51 52 53 54 57 58 59 60 50 51 52 53 53 53 56 57 57 58 61 55 56 53 53 54 54 54 51 52 51 51 51 52 52 53 54 54 55 56 43 44 45 46 43 43 59 59 59 59 59 59 59 59 47 48 49 50 52 53 54 56 57 57 57 59 52 52 0 0 0 30 30 31 30 30 30 30 30 30 30 31 31 31 31 31 31 31 31 30 31 31 31 31 31 31 31 31 31 31 31 31 31 31 31 31 31 31 31 31 31 31 31 31 31 31 31 31 31 31 31 31 31 31 31 32 30 30 31 31 31 31 31 31 31 31 31 42 43 43 31 31 31 31 31 31 31 31 31 31 31 31 31 31 31 31 31 31 31 31 31 31 31 31 31 31 31 31 31 32 32 32 32 31 31 31 31 31 31 31 31
    0 0 0 0 0 0 0 0 0 0 0 0 0 0 0 0 0 0 0 0 0 0 0 0 0 0 0 0 0 0 0 0 0 28 28 28 28 28 29 29 29 28 28 28 28 0 0 0 29 29 28 28 28 28 28 28 28 28 28 25 27 23 23 23 23 25 26 27 28 28 28 29 29 31 34 35 35 35 36 37 30 30 0 0 0 0 0 55 47 47 48 51 52 52 52 52 53 80 81 82 83 64 84 53 53 53 53 53 53 54 54 55 56 57 58 58 58 58 58 58 58 36 0 18 19 21 22 23 24 26 27 28 45 48 50 53 53 53 44 45 35 36 40 40 41 42 43 44 45 46 47 48 48 48 49 50 51 41 41 41 41 41 41 42 0 0 0 0 18 19 20 20 22 23 24 24 25 26 27 28 27 41 40 40 41 41 41 41 41 41 36 37 38 39 40 42 43 44 45 45 46 47 48 49 50 51 65 65 66 66 66 66 67 67 68 68 68 63 64 65 66 74 75 75 75 76 75 76 75 76 76 77 78 80 67 67 67 67 67 67 67 68 68 88 89 94 95 96 96 0 0 0 0 71 70 64 64 65 65 46 46 85 68 68 68 68 68 68 68 68 68 68 59 58 59 59 83 85 85 64 87 68 68 40 69 69 69 69 69 69 68 68 68 68 68 68 68 68 68 68 68 68 68 68 68 68 68 68 68 68 68 68 68 68 68 68 68 68 0 17 17 17 68 68 68 68 68 68 68 68 68 68 51 51 68 67 67 67 67 67 68 69 68 68 68 68 68 68 68 68 68 68 68 68 68 68 68 68 68 67 67 67 67 67 58 60 60 62 65 66 67 67 68 70 71 72 53 53 54 67 67 67 67 67 67 67 67 67 67 58 58 62 56 57 56 57 58 61 61 61 62 63 53 54 55 56 66 66 66 66 66 66 65 65 62 59 59 59 59 59 60 46 47 45 46 66 48 48 49 50 55 65 65 65 64 64 64 64 64 52 52 42 43 44 47 64 59 60 60 49 51 52 51 51 52 57 58 57 56 57 55 55 53 53 54 54 52 51 51 51 51 51 52 52 53 54 54 55 56 57 44 45 46 48 38 59 59 59 59 59 59 59 59 47 48 49 50 57 57 57 57 57 57 58 59 52 52 0 0 0 30 31 31 31 30 30 31 31 30 31 31 31 31 31 31 31 31 31 31 31 31 31 31 31 31 31 31 31 31 31 31 31 31 31 31 31 31 31 31 31 31 31 31 31 31 31 31 31 31 31 31 30 31 31 30 30 31 31 31 31 31 31 31 31 31 31 43 43 31 31 31 31 31 31 31 31 31 31 31 32 32 32 31 31 31 31 31 31 31 31 31 31 31 31 31 31 31 31 32 32 32 32 31 31 31 31 31 31 31 31
    0 0 0 0 0 0 0 0 0 0 0 0 0 0 0 0 0 0 0 0 0 0 0 0 0 0 0 0 0 0 0 0 0 28 28 28 28 28 28 28 28 28 28 28 0 0 0 29 29 28 28 28 28 28 28 28 28 27 27 0 19 22 22 23 23 25 26 27 28 28 28 29 29 33 34 35 35 36 37 37 30 30 0 0 0 0 0 56 47 48 49 51 52 52 52 53 53 53 53 63 64 64 66 53 53 53 53 53 53 54 54 55 56 57 58 58 58 58 58 58 58 58 28 17 19 20 21 24 25 26 27 28 29 48 49 51 53 53 53 54 35 36 36 41 42 43 44 45 46 46 46 47 47 47 47 50 50 48 42 42 42 42 42 0 0 0 0 0 0 19 19 20 20 22 24 24 24 24 25 28 27 41 41 41 41 41 40 41 41 41 37 38 39 40 41 42 43 44 45 46 0 0 0 50 51 52 0 65 66 66 66 66 67 67 68 68 68 64 65 22 66 73 74 75 75 76 77 77 75 75 77 77 79 80 67 67 67 67 67 67 67 68 68 88 88 69 69 69 0 69 0 0 0 70 71 72 64 65 46 46 46 46 68 68 68 68 68 68 68 68 68 68 58 58 59 59 59 67 63 62 66 68 68 69 69 69 69 69 69 69 68 68 68 68 68 68 68 68 68 68 68 68 68 68 68 68 68 68 68 68 68 68 68 68 68 68 68 68 0 0 0 27 68 68 68 68 68 68 68 68 68 68 51 63 63 63 66 66 67 67 68 68 68 68 68 72 68 68 68 68 68 68 68 68 68 68 68 68 68 67 67 67 66 60 60 58 60 67 67 67 67 67 68 68 51 53 53 54 55 67 67 67 67 67 67 67 67 67 67 65 65 66 57 57 56 57 58 59 61 61 62 63 65 65 55 56 66 66 66 66 66 65 65 65 59 59 59 59 59 59 46 47 64 65 66 66 67 49 54 55 56 54 74 65 75 64 64 64 64 46 46 47 48 49 64 64 64 63 63 63 63 63 63 63 63 58 58 57 57 57 57 51 52 53 53 52 52 51 50 51 51 52 52 52 53 54 54 55 56 57 58 45 46 60 60 59 59 59 59 59 59 59 59 47 48 49 48 57 57 57 57 57 57 58 56 52 52 0 0 0 30 31 31 31 30 30 31 31 31 31 31 31 31 31 31 31 31 31 31 31 31 31 31 31 31 31 31 31 31 31 31 31 31 31 31 31 31 31 31 31 31 31 31 31 31 31 31 31 31 31 31 32 33 34 30 30 31 31 31 31 31 31 31 31 31 31 31 31 31 31 31 31 31 31 31 31 31 31 31 32 32 32 31 31 31 31 38 31 31 31 31 31 31 31 31 31 31 31 32 32 32 32 33 31 31 31 31 31 31 31
    0 0 0 0 0 0 0 0 0 0 0 0 0 0 0 0 0 0 0 0 0 0 0 0 0 0 0 0 0 0 0 0 0 28 28 28 28 28 28 28 28 28 0 0 0 0 29 29 28 28 28 28 28 28 28 28 0 0 0 0 0 0 0 0 0 17 18 27 28 28 29 23 24 25 26 27 28 29 30 31 30 30 0 0 0 0 0 60 40 41 42 43 44 45 52 52 53 53 53 53 53 53 57 53 53 53 53 53 53 54 54 55 56 57 58 58 58 58 58 58 58 58 26 17 18 19 20 23 24 25 25 25 29 50 51 52 53 54 32 33 33 32 33 34 35 43 43 44 46 46 46 66 66 59 59 57 50 50 50 42 28 28 0 0 0 0 0 0 33 19 19 19 20 20 21 22 23 24 25 26 27 28 41 41 41 41 39 40 40 36 37 38 39 40 41 42 43 44 45 0 0 0 0 0 51 0 0 66 66 66 66 66 41 67 68 67 63 64 65 22 22 22 68 69 70 76 77 78 75 76 77 78 79 80 67 67 67 67 67 67 67 68 68 88 88 69 70 0 0 73 69 0 0 71 48 48 48 47 47 47 47 46 68 68 68 68 68 68 68 68 68 68 58 58 59 59 59 68 68 68 66 67 68 68 69 68 69 69 68 68 68 68 68 68 68 68 68 68 68 68 68 68 68 68 68 68 68 68 68 68 68 68 68 68 68 68 68 68 0 21 20 20 68 68 68 68 68 68 68 68 68 68 51 68 68 60 67 67 67 67 68 68 68 68 68 67 68 68 68 68 68 68 68 68 68 68 68 68 68 67 67 64 66 60 60 65 66 66 67 66 67 67 49 50 51 52 53 55 55 67 67 67 67 67 67 67 67 67 67 65 65 65 65 58 54 58 58 66 67 66 66 64 65 66 56 57 57 66 66 66 66 66 65 62 58 58 59 46 46 48 48 46 64 64 65 65 55 55 56 56 56 59 60 62 63 63 64 65 66 66 47 48 49 50 64 64 63 63 63 63 63 63 63 63 63 63 58 57 57 57 58 58 51 52 52 51 47 48 51 51 51 52 53 52 53 54 55 56 56 57 43 45 46 60 60 59 59 59 59 59 59 59 59 48 48 49 48 57 57 57 57 57 57 58 56 52 0 0 0 0 30 31 31 31 30 30 31 31 31 31 31 31 30 31 31 31 31 31 31 31 31 31 31 31 31 31 31 31 31 31 31 31 31 31 31 31 31 31 31 31 31 31 31 31 31 31 31 31 31 31 32 33 33 30 30 31 31 31 31 31 31 31 31 31 31 31 31 31 31 31 31 31 31 31 31 31 31 31 32 32 33 34 35 36 38 39 40 31 31 31 31 31 31 31 31 31 31 31 32 32 32 32 33 41 31 31 31 31 31 31
    0 0 0 0 0 0 0 0 0 0 0 0 0 0 0 0 0 0 0 0 0 0 0 0 0 0 0 0 0 0 0 0 0 28 28 28 28 28 28 28 28 28 28 28 28 28 29 29 28 28 28 28 28 28 28 28 0 0 0 0 29 29 29 29 28 28 28 28 28 28 28 28 24 25 26 27 28 29 30 31 30 30 30 0 0 0 0 40 40 41 42 43 44 45 46 47 48 52 53 53 52 53 54 53 53 53 53 53 53 54 54 55 56 57 58 58 58 58 58 58 58 58 26 26 26 19 20 27 24 44 45 46 49 50 29 29 30 31 32 32 32 32 33 34 35 35 43 44 48 45 63 63 63 59 62 62 60 61 59 0 37 29 0 0 0 0 0 18 18 19 19 19 19 21 21 22 23 24 25 26 27 28 29 42 31 32 39 40 35 36 37 38 39 40 41 42 43 44 45 46 47 0 0 0 0 0 0 0 0 0 40 40 40 0 67 62 63 64 65 66 67 68 68 69 75 75 75 0 75 76 77 78 79 80 67 67 67 67 67 67 67 68 68 87 64 69 0 0 66 68 69 47 48 48 48 48 47 47 47 67 0 68 68 68 68 68 68 68 68 68 68 68 68 68 59 59 60 68 68 68 68 67 67 68 68 68 68 68 68 68 68 68 68 68 68 68 68 68 68 68 68 68 68 68 68 68 68 68 68 68 68 68 68 68 68 68 68 68 0 21 20 20 68 68 68 68 68 68 68 68 68 68 51 68 68 61 67 68 68 67 68 68 68 68 68 67 67 67 68 68 68 68 68 68 68 68 68 68 68 67 67 67 66 66 66 66 66 66 66 66 67 68 49 50 51 53 53 54 55 56 67 67 67 67 67 67 67 67 64 65 65 65 65 66 52 66 66 66 66 66 66 66 66 66 66 66 58 59 58 58 60 61 57 58 58 58 58 46 46 47 46 46 47 64 64 54 55 55 56 57 62 62 62 62 63 63 64 65 66 67 71 48 49 50 64 64 63 63 63 63 63 63 63 63 63 63 57 56 63 64 64 59 51 51 51 49 62 62 62 62 62 52 53 54 55 56 57 56 57 42 43 44 46 60 60 60 59 59 59 59 59 59 59 47 48 49 48 57 57 57 57 57 57 58 64 52 0 0 0 0 30 31 31 31 31 31 31 31 31 31 31 31 30 31 31 31 31 31 31 31 31 31 31 31 31 31 31 31 31 31 31 31 31 31 31 31 31 31 31 31 31 31 31 31 31 31 32 29 30 31 31 31 31 31 31 31 31 31 31 31 31 31 31 31 31 31 31 31 31 31 31 31 31 31 31 31 31 32 32 33 34 35 36 37 38 39 40 31 31 31 31 31 31 31 31 31 31 31 32 32 32 32 33 41 31 31 31 31 31 31</data></Disparity>
</opencv_storage>
