<?xml version="1.0"?>
<opencv_storage>
<Disparity type_id="opencv-matrix">
  <rows>52</rows>
  <cols>641</cols>
  <dt>u</dt>
  <data>
    0 0 0 0 0 0 0 0 0 0 0 0 0 0 0 0 0 0 0 0 0 0 0 0 0 0 0 0 0 0 0 0 27 27 27 27 27 27 27 27 27 28 28 28 28 28 28 28 28 28 28 28 28 28 28 28 28 28 28 28 28 28 28 28 28 28 28 28 28 28 29 29 29 29 29 29 29 29 29 29 29 29 29 29 29 29 29 29 29 29 29 29 29 30 30 30 30 30 30 30 30 30 30 30 30 30 30 30 30 30 30 30 30 30 30 30 30 30 30 30 30 30 30 30 30 30 30 30 31 31 31 31 31 31 31 31 31 31 31 31 31 31 31 31 31 31 31 31 31 31 31 31 31 31 31 31 31 31 31 31 31 31 31 31 32 32 32 32 32 32 32 32 32 32 32 32 32 32 32 32 32 32 32 32 32 32 32 32 32 32 32 32 32 32 32 32 32 32 32 32 32 32 32 32 33 33 33 33 33 33 33 33 33 33 33 33 33 33 33 33 33 33 33 33 33 33 33 39 39 39 0 0 0 0 0 0 0 0 0 0 0 0 0 0 0 0 0 0 0 0 0 0 0 0 0 0 0 0 0 0 61 61 62 62 62 62 62 62 62 63 63 63 63 63 63 63 63 64 64 64 64 64 64 64 64 64 64 64 65 65 65 65 65 65 65 65 64 0 63 63 0 0 0 0 0 0 0 0 34 34 34 34 34 35 35 35 35 35 35 34 34 34 34 34 35 35 35 35 35 35 35 35 35 35 35 35 35 35 35 35 34 35 35 35 35 35 35 34 34 35 35 0 0 0 0 0 0 0 0 0 0 0 0 0 0 0 0 0 0 49 49 49 50 51 51 51 51 52 52 53 54 55 53 46 47 48 50 51 52 52 52 53 53 53 54 54 55 55 55 55 56 56 55 55 55 55 55 55 55 55 55 55 56 56 56 56 55 55 55 56 56 56 56 56 56 56 56 56 55 55 55 56 56 56 56 56 56 56 56 56 56 56 57 57 57 57 57 57 57 57 57 56 56 57 56 57 57 56 56 56 56 56 56 56 56 56 56 56 56 56 56 56 56 56 56 56 56 56 56 56 56 56 56 56 55 55 55 55 55 55 56 56 55 55 55 55 55 55 55 55 55 54 54 54 54 54 54 54 53 53 53 51 52 51 52 52 52 0 0 0 0 32 32 32 32 32 32 32 32 32 32 31 31 31 31 31 31 31 31 31 31 31 31 31 31 31 31 31 31 31 31 31 31 31 31 31 31 31 31 31 31 31 31 31 31 31 31 31 31 31 31 31 31 31 30 30 30 30 30 30 30 30 30 30 30 30 30 30 30 30 30 30 30 30 30 30 30 30 30 30 30 30 30 30 30 30 30 30 30 30 30 30 30 30 30 30 30 30 30 30 30 30 30 30 30 30 30 30 30 30 29 29 29 29 29 29 29 29 29 29 29
    0 0 0 0 0 0 0 0 0 0 0 0 0 0 0 0 0 0 0 0 0 0 0 0 0 0 0 0 0 0 0 0 27 27 27 27 27 28 27 28 28 28 28 28 28 28 28 28 28 28 28 28 28 28 28 28 28 28 28 28 28 28 28 28 28 28 28 29 28 29 29 29 29 29 29 29 29 29 29 29 29 29 29 29 29 29 29 29 29 29 29 29 29 30 30 30 30 30 30 30 30 30 30 30 30 30 30 30 30 30 30 30 30 30 30 30 30 30 30 30 30 30 30 30 30 30 30 31 31 31 31 31 31 31 31 31 31 31 31 31 31 31 31 31 31 31 31 31 31 31 31 31 31 31 31 31 31 31 31 31 31 32 32 32 32 32 32 32 32 32 32 32 32 32 32 32 32 32 32 32 32 32 32 32 32 32 32 32 32 32 32 32 32 32 32 32 32 32 32 32 32 32 33 33 33 33 33 33 33 33 33 33 33 33 33 33 33 33 33 33 33 33 33 33 33 33 0 39 39 0 0 0 0 0 0 0 0 0 0 0 0 0 0 0 0 0 0 0 0 0 0 0 0 0 0 0 0 0 0 62 62 62 62 63 63 63 63 63 63 63 63 63 63 63 63 63 64 64 64 64 65 65 65 64 64 64 65 65 65 65 65 65 65 65 64 64 0 0 0 0 0 0 0 0 0 0 35 0 34 34 34 34 35 35 35 35 35 35 35 35 34 34 34 35 36 35 35 35 35 35 35 35 35 35 35 35 35 35 35 35 35 35 35 35 35 35 35 34 34 35 35 0 0 0 0 0 0 0 0 0 0 0 0 0 0 0 0 0 0 49 49 49 50 50 51 51 51 52 52 53 52 52 53 45 54 55 54 54 52 52 52 53 53 53 54 54 55 55 55 55 55 55 55 55 55 55 55 55 55 55 56 56 56 55 55 55 55 55 56 56 56 56 56 56 56 56 56 56 55 55 55 56 56 56 56 56 56 56 56 56 57 56 57 57 57 57 57 57 57 57 57 56 56 57 57 57 57 56 56 56 56 56 57 56 56 56 56 56 56 56 56 56 56 56 56 56 56 56 56 56 56 56 56 56 55 55 55 55 55 55 56 56 55 55 55 55 55 55 55 54 54 54 54 54 54 54 54 54 53 53 53 51 51 51 52 52 50 0 0 0 0 32 32 32 32 32 32 32 32 32 32 32 32 31 31 31 31 31 31 31 31 31 31 31 31 31 31 31 31 31 31 31 31 31 31 31 31 31 31 31 31 31 31 31 31 31 31 31 31 31 31 31 31 31 31 31 31 31 31 30 30 30 30 30 30 30 30 30 31 31 30 30 30 30 30 30 30 30 30 30 30 30 30 30 30 30 30 30 30 30 30 30 30 30 30 30 30 30 30 30 30 30 30 30 30 30 30 30 30 30 30 29 29 29 29 29 29 29 29 29 29
    0 0 0 0 0 0 0 0 0 0 0 0 0 0 0 0 0 0 0 0 0 0 0 0 0 0 0 0 0 0 0 0 27 27 27 28 28 28 27 28 28 28 28 28 28 28 28 28 28 28 28 28 28 28 28 28 28 28 28 28 28 29 28 28 28 29 29 29 29 29 29 29 29 29 29 29 29 29 29 29 29 29 29 29 29 29 29 29 29 29 29 29 29 30 30 30 30 30 30 30 30 30 30 30 30 30 30 30 30 30 30 30 30 30 30 30 30 30 30 30 30 30 30 30 30 30 30 31 31 31 31 31 31 31 31 31 31 31 31 31 31 31 31 31 31 31 31 31 31 31 31 31 31 31 31 31 31 31 31 32 32 32 32 32 32 32 32 32 32 32 32 32 32 32 32 32 32 32 32 32 32 32 32 32 32 32 32 32 32 32 32 32 32 32 32 32 32 32 32 32 32 33 33 33 33 33 33 33 33 33 33 33 33 33 33 33 33 33 33 33 33 33 33 0 0 0 0 0 0 0 0 0 0 0 0 0 0 0 0 0 0 0 0 0 0 0 0 0 0 0 0 0 0 0 0 0 62 62 62 62 63 63 63 63 63 63 63 63 63 64 64 63 64 64 64 64 64 65 65 65 65 65 65 65 65 65 65 65 65 65 65 65 65 64 64 0 0 0 0 0 0 0 0 0 0 0 0 0 0 0 34 34 34 35 35 35 35 35 35 35 35 34 35 36 36 37 37 37 35 35 35 35 35 35 35 35 35 0 0 0 35 35 35 35 35 35 35 34 34 34 35 0 0 0 0 0 0 0 0 0 0 0 0 0 0 0 0 0 0 0 48 48 49 50 51 51 51 51 52 52 53 52 53 54 54 55 56 57 58 52 52 52 53 53 54 54 55 55 55 55 55 55 55 55 55 55 55 55 55 55 56 56 55 55 55 55 55 55 55 55 56 56 56 56 56 56 56 56 55 55 55 55 56 56 56 56 56 56 56 56 56 56 57 57 57 57 57 57 57 57 56 56 56 56 57 57 57 56 56 56 56 56 56 56 56 56 56 56 56 56 56 56 56 56 56 56 56 56 56 56 56 56 55 55 55 55 55 55 55 55 55 56 55 55 54 54 55 55 55 54 54 54 54 54 55 54 54 54 53 53 53 53 51 51 52 52 50 0 0 0 0 32 32 32 32 32 32 32 32 32 32 32 32 31 31 31 31 31 31 31 31 31 31 31 31 31 31 31 32 32 32 32 31 31 31 31 31 31 31 31 31 31 31 31 31 31 31 31 31 31 31 31 31 31 31 31 31 31 31 31 30 30 30 30 30 30 30 31 31 31 30 30 30 30 30 30 30 30 30 30 30 30 30 30 30 30 30 30 30 30 30 30 30 30 30 30 30 30 30 30 30 30 30 30 30 30 30 30 30 30 30 29 29 29 29 29 29 29 29 29 29
    0 0 0 0 0 0 0 0 0 0 0 0 0 0 0 0 0 0 0 0 0 0 0 0 0 0 0 0 0 0 0 0 27 27 27 28 28 28 27 28 28 28 28 28 28 28 28 28 28 28 28 28 28 28 28 28 28 28 28 28 29 29 29 29 29 29 29 29 29 29 29 29 29 29 29 29 29 29 29 29 29 29 29 29 29 29 29 29 29 29 29 29 30 30 30 30 30 30 30 30 30 30 30 30 30 30 30 30 30 30 30 30 30 30 30 30 30 30 30 30 30 30 31 30 31 31 31 31 31 31 31 31 31 31 31 31 31 31 31 31 31 31 31 31 31 31 31 31 31 31 31 31 31 31 31 31 31 31 32 32 32 32 32 32 32 32 32 32 32 32 32 32 32 32 32 32 32 32 32 32 32 32 32 32 32 32 32 32 32 32 32 32 32 32 32 32 32 32 32 32 32 33 33 33 33 33 33 33 33 33 33 33 33 33 33 33 33 33 33 0 0 0 0 0 0 0 0 0 0 0 0 0 0 0 0 0 0 0 0 0 0 0 0 0 0 0 0 0 0 0 0 0 0 0 0 62 62 63 63 63 63 63 63 63 63 63 63 64 64 64 64 64 64 64 64 64 64 65 65 65 65 65 65 65 65 65 65 65 65 65 65 64 64 64 0 0 0 0 0 0 0 0 0 0 0 36 36 0 35 35 35 0 35 36 35 35 35 35 35 35 35 35 36 37 37 37 37 37 37 35 35 35 35 35 35 35 0 0 0 0 0 35 35 35 35 35 35 34 34 34 35 0 0 0 0 0 0 0 0 0 0 0 0 0 0 0 0 0 0 0 48 48 48 50 50 51 51 51 52 52 53 53 53 54 55 56 56 57 58 52 52 52 53 53 54 54 55 55 55 55 55 55 55 55 55 55 55 55 55 55 56 56 56 55 55 55 55 55 55 55 55 56 56 56 57 56 56 56 55 55 55 55 55 55 55 56 56 56 56 56 56 56 57 57 57 56 57 57 57 57 55 56 56 56 50 57 51 56 56 56 56 56 56 56 56 56 56 56 56 56 56 56 56 56 56 56 56 56 56 56 56 56 55 55 55 55 55 55 55 55 55 55 55 55 54 54 54 54 54 54 54 54 54 54 54 54 58 58 59 53 61 53 51 51 52 52 50 0 0 0 0 32 32 32 32 32 32 32 32 32 32 32 32 32 31 31 31 32 32 32 31 31 31 31 31 32 31 32 32 32 32 32 31 31 31 31 31 31 31 31 31 31 31 31 31 31 31 31 31 31 31 31 31 31 31 31 31 31 31 31 31 30 30 30 30 30 30 31 31 31 31 30 30 30 30 30 30 30 30 30 30 30 30 30 30 30 30 30 30 30 30 30 30 30 30 30 30 30 30 30 30 30 30 30 30 30 30 30 30 30 30 30 29 29 29 29 29 29 29 29 29
    0 0 0 0 0 0 0 0 0 0 0 0 0 0 0 0 0 0 0 0 0 0 0 0 0 0 0 0 0 0 0 0 0 0 0 0 0 27 28 28 28 28 28 22 22 28 28 28 28 34 34 28 28 28 28 28 28 28 29 29 29 29 29 29 29 29 29 29 29 29 29 29 29 29 29 29 29 29 29 29 29 29 29 29 29 29 29 29 29 29 29 29 29 30 30 30 30 30 30 30 30 30 30 30 30 30 30 30 30 30 30 30 30 30 30 30 30 30 30 30 30 30 31 30 31 31 31 31 31 31 31 31 31 31 31 31 31 31 31 31 31 31 31 31 31 31 31 31 31 31 31 31 31 31 31 31 31 31 32 32 32 32 32 32 32 32 32 32 32 32 32 32 32 32 32 31 32 32 32 32 32 32 32 32 32 32 32 32 32 32 32 32 32 33 32 33 34 35 35 35 35 33 33 33 33 33 33 33 33 33 33 33 33 33 33 33 33 0 0 0 0 0 0 0 0 0 0 0 0 0 0 0 0 0 0 0 0 0 0 0 0 0 0 0 0 0 0 0 0 0 0 0 0 63 63 63 63 63 63 63 63 63 63 63 63 64 64 64 64 64 64 64 64 64 64 65 65 65 65 65 65 65 65 65 65 65 65 65 65 65 64 64 0 0 0 0 0 0 0 0 0 36 37 37 37 37 37 37 37 37 37 37 37 37 37 36 35 35 35 35 36 36 37 37 37 37 37 37 37 36 36 35 35 36 35 35 0 0 0 0 0 35 35 35 35 35 35 34 34 35 35 0 0 0 0 0 0 0 0 0 0 0 0 0 0 0 0 0 0 0 48 48 48 49 49 50 50 51 52 52 53 53 53 54 55 56 57 58 58 59 52 52 53 53 54 55 55 55 55 55 55 55 55 55 55 55 55 55 55 56 56 56 56 55 55 55 55 55 55 55 55 55 56 56 56 56 56 56 55 55 55 55 55 55 55 55 56 56 56 56 56 56 57 56 56 56 57 57 56 54 55 56 56 48 49 57 56 56 56 56 56 56 56 56 56 56 56 56 56 56 56 56 56 56 56 56 56 56 56 56 56 56 55 55 55 55 55 56 55 55 55 55 55 55 55 55 54 54 54 54 54 54 54 54 54 49 49 59 60 53 53 53 52 52 49 50 50 0 0 0 32 32 32 32 32 32 32 32 32 32 32 32 32 32 32 31 32 32 32 32 32 32 32 31 31 32 32 32 32 32 32 32 32 31 31 31 31 31 31 31 31 31 31 31 31 31 31 31 31 31 31 31 31 31 31 31 31 31 31 31 31 31 31 31 31 31 31 31 31 31 31 30 30 30 30 30 30 30 30 30 30 30 30 30 30 30 30 30 30 30 30 30 30 30 30 30 30 30 30 30 30 30 31 30 30 30 30 30 30 30 30 30 29 29 29 29 29 29 29 29 29
    0 0 0 0 0 0 0 0 0 0 0 0 0 0 0 0 0 0 0 0 0 0 0 0 0 0 0 0 0 0 0 0 0 0 0 0 0 0 33 33 33 33 33 22 22 34 34 34 34 34 34 34 42 0 0 0 0 0 34 0 0 0 0 0 29 29 29 29 29 29 29 29 0 28 29 29 29 29 29 29 29 29 29 0 0 0 0 0 0 0 0 0 29 0 29 30 0 0 30 30 30 30 30 30 30 30 31 31 31 0 0 0 0 0 30 30 30 30 30 30 30 30 31 31 31 31 31 31 31 31 31 31 31 31 31 0 0 0 0 31 31 31 31 31 31 31 32 31 31 31 31 31 31 32 31 32 32 31 31 32 32 32 32 32 32 32 32 0 0 0 0 0 0 0 31 31 34 34 35 33 33 32 32 32 32 32 32 0 0 33 0 0 33 33 28 29 34 35 35 35 35 35 0 0 0 0 0 0 95 0 0 33 33 33 34 21 22 22 0 0 0 0 0 0 0 0 0 0 0 0 0 0 0 0 0 0 0 0 0 0 0 0 0 0 0 0 0 0 0 0 0 62 63 63 64 64 64 63 63 63 63 63 63 64 64 64 64 64 64 64 64 64 65 65 65 65 65 65 65 65 65 65 65 65 65 65 65 65 65 64 64 0 0 0 0 0 0 0 0 0 37 37 37 37 37 37 37 37 37 37 37 37 37 37 37 37 37 37 37 37 37 37 37 37 37 37 37 37 37 37 37 36 36 36 36 36 36 36 36 36 0 35 35 35 35 35 35 34 34 35 35 0 0 0 0 0 0 0 0 0 0 0 0 0 0 0 0 0 0 0 48 48 48 49 49 49 50 51 52 52 53 53 53 54 56 57 57 58 59 59 52 52 53 53 54 55 55 55 55 55 55 55 55 55 55 55 55 55 55 56 56 56 56 55 55 55 55 55 55 55 55 55 55 56 56 56 56 56 55 55 55 55 55 55 55 55 56 56 56 56 56 56 56 56 56 56 57 57 56 32 55 56 48 48 49 57 56 56 56 56 56 56 56 56 56 56 56 56 56 56 56 56 56 56 56 56 56 56 56 56 56 55 55 55 55 55 55 55 55 55 55 55 55 55 55 55 55 54 54 54 54 54 54 54 54 49 53 53 53 53 53 53 52 49 50 50 51 0 0 0 32 32 32 32 32 32 32 32 32 32 32 32 32 32 32 32 32 32 32 32 32 32 32 32 32 32 32 32 32 32 32 32 32 31 31 31 31 31 31 31 31 31 31 31 31 31 31 31 31 31 31 31 31 31 31 31 31 31 31 31 31 31 31 31 31 31 31 31 31 31 31 31 30 30 30 30 30 30 30 30 30 30 30 30 30 30 30 30 30 30 30 30 30 30 30 30 30 30 30 30 30 30 30 30 30 30 30 30 30 30 30 30 30 29 29 29 29 29 29 29 29
    0 0 0 0 0 0 0 0 0 0 0 0 0 0 0 0 0 0 0 0 0 0 0 0 0 0 0 0 0 0 0 0 0 0 0 0 0 0 33 34 34 34 34 33 34 34 34 34 34 34 34 34 35 35 35 35 34 34 34 34 0 0 0 0 0 0 0 0 33 0 0 0 0 0 28 0 0 0 0 0 0 0 0 0 0 0 0 0 0 0 0 0 0 0 0 0 0 0 0 0 0 0 31 31 31 31 32 0 0 0 0 0 0 0 0 30 30 30 30 30 31 31 31 0 0 0 0 0 0 0 0 0 0 0 0 0 0 0 0 0 0 0 0 0 0 0 32 31 31 31 31 31 0 0 0 0 0 0 0 0 0 0 0 0 0 0 32 0 0 0 0 0 0 0 0 0 35 35 35 35 33 33 33 33 33 33 0 0 0 0 0 0 74 0 0 29 30 35 35 35 35 35 35 0 0 0 0 0 0 0 0 0 0 0 35 0 0 0 0 0 0 0 0 0 0 0 0 0 0 0 0 0 0 0 0 0 0 0 0 0 0 0 0 0 0 0 0 0 62 63 63 63 63 64 64 64 63 63 63 63 63 75 64 64 64 64 64 64 65 65 65 65 65 65 65 65 65 65 66 65 65 65 65 65 65 65 65 64 64 0 0 0 0 0 0 0 0 0 37 37 37 37 37 37 37 37 37 37 37 37 37 37 37 37 37 37 37 37 37 37 37 37 37 37 37 37 37 37 37 37 37 37 37 37 37 37 37 37 37 37 37 35 35 35 35 36 36 38 34 35 35 0 0 0 0 0 0 0 0 0 0 0 0 0 0 0 0 0 0 0 48 48 49 49 48 49 50 51 52 52 53 53 53 54 54 57 57 58 59 59 51 52 53 53 54 55 55 56 56 56 56 56 55 55 55 55 55 55 55 56 56 56 55 55 55 55 55 55 55 55 55 55 55 56 56 56 56 56 56 55 55 55 55 55 56 55 56 56 56 56 56 56 56 56 56 56 56 56 56 56 55 56 56 48 56 56 56 56 56 56 56 56 56 56 56 56 56 56 56 56 56 56 56 56 56 56 56 56 56 56 56 55 55 55 55 55 55 55 55 55 55 55 55 55 55 55 55 54 54 54 54 54 54 54 54 53 53 53 53 53 53 52 53 49 50 51 0 0 0 32 32 32 32 32 32 32 32 32 32 32 32 32 32 32 32 32 32 32 32 32 32 32 32 32 32 32 32 32 32 32 32 32 32 32 31 31 31 31 31 31 31 31 31 31 31 31 31 31 31 31 31 31 31 31 31 31 31 31 31 31 31 31 31 31 31 31 31 31 31 31 31 31 31 30 30 30 30 30 30 30 30 30 30 30 30 30 30 30 30 30 30 30 30 30 30 30 30 30 30 30 30 30 30 30 30 30 30 30 30 30 30 30 30 30 30 29 29 29 29 29 29
    0 0 0 0 0 0 0 0 0 0 0 0 0 0 0 0 0 0 0 0 0 0 0 0 0 0 0 0 0 0 0 0 0 0 0 0 0 0 33 34 34 34 34 34 34 34 34 33 33 33 34 34 34 34 34 34 34 34 34 34 34 34 0 0 0 32 33 33 33 34 0 0 0 27 27 27 0 0 42 42 0 0 0 0 49 49 0 60 60 0 0 0 0 34 34 34 0 0 0 0 0 0 0 33 33 34 34 34 34 35 35 35 0 0 0 0 0 0 0 0 0 0 0 0 0 0 0 0 0 0 0 0 0 0 0 0 0 0 0 0 0 0 35 36 36 0 0 0 0 0 31 0 0 0 0 0 36 36 36 0 0 0 0 0 0 0 0 0 0 0 0 0 0 0 0 35 35 35 35 35 35 34 34 34 34 35 0 0 0 0 0 0 0 0 0 0 35 35 36 36 35 35 35 36 36 0 0 0 0 35 35 0 0 0 36 0 0 0 0 0 0 0 0 0 0 0 0 0 0 0 0 0 0 0 0 0 0 0 0 0 0 0 0 0 0 0 0 63 63 63 63 63 63 64 64 63 63 63 64 76 64 64 64 64 64 65 65 65 65 65 65 65 65 65 65 65 65 66 66 66 65 65 65 65 65 64 64 64 64 0 0 0 0 0 0 0 0 37 37 37 37 37 37 37 37 37 37 37 37 37 37 37 37 37 37 37 37 37 37 37 37 37 37 37 37 37 37 37 37 37 37 37 37 37 37 37 37 37 37 37 37 37 37 37 37 37 37 37 37 37 37 37 37 37 37 38 0 0 0 0 0 0 0 0 0 0 0 0 0 0 0 48 49 49 48 48 50 51 51 52 53 53 53 53 53 54 54 54 54 55 54 52 53 54 67 67 68 68 56 56 56 56 55 50 53 54 54 55 55 56 56 55 55 55 55 55 55 55 55 55 55 55 55 56 56 56 56 56 56 55 56 55 55 56 56 56 56 56 56 56 57 56 56 56 56 56 56 56 56 56 56 56 56 56 56 56 56 56 56 56 56 56 56 56 56 56 56 56 56 56 56 56 56 56 56 55 56 56 56 55 55 55 55 55 55 55 55 55 55 55 55 55 55 55 55 55 55 54 54 54 54 54 54 54 54 53 53 53 53 53 53 52 53 49 50 51 52 0 0 32 32 32 32 32 32 32 32 32 32 32 32 32 32 32 32 32 32 32 32 32 32 32 32 32 32 32 32 32 32 32 32 32 32 32 31 31 31 31 31 31 31 31 31 31 31 31 31 31 31 31 31 31 31 31 31 31 31 31 31 31 31 31 31 31 31 31 31 31 31 31 31 31 31 31 30 30 30 30 30 30 30 30 30 30 30 30 30 30 30 30 30 30 30 30 30 30 30 30 30 30 30 30 30 30 30 30 30 30 30 30 30 30 30 30 30 30 30 30 30 30 30
    0 0 0 0 0 0 0 0 0 0 0 0 0 0 0 0 0 0 0 0 0 0 0 0 0 0 0 0 0 0 0 0 0 0 0 0 0 0 0 34 34 34 34 34 34 34 34 33 33 33 34 33 34 34 34 34 34 34 34 34 34 34 34 34 34 34 34 33 33 34 34 34 34 34 27 27 34 42 42 42 34 42 0 34 34 34 34 34 34 34 34 34 34 34 34 34 34 0 0 0 0 34 34 34 34 34 34 34 35 35 35 35 35 35 35 0 35 34 35 35 0 0 0 0 0 0 0 0 0 0 0 35 35 35 35 35 35 0 35 35 35 35 35 35 35 35 35 35 35 0 0 0 0 0 35 35 35 35 35 35 35 35 35 35 35 35 35 35 35 35 35 35 35 35 35 35 35 35 35 35 35 35 35 35 35 35 36 36 36 36 36 36 36 36 36 36 36 36 36 36 36 36 36 36 36 36 36 36 36 36 36 36 36 0 0 0 0 0 0 0 0 0 0 0 0 0 0 0 0 0 0 0 0 0 0 0 0 0 0 0 0 0 0 0 0 0 63 63 63 63 63 63 64 64 63 63 64 64 76 64 64 64 64 65 65 65 65 65 65 65 65 65 65 65 65 66 66 66 66 66 66 66 65 64 64 64 64 0 0 0 0 0 0 0 0 37 37 37 37 37 37 37 37 37 37 37 37 37 37 37 37 37 37 37 37 37 37 37 37 37 37 37 37 37 37 37 37 37 37 37 37 37 37 37 37 37 37 37 37 37 37 37 37 37 37 37 37 37 37 37 37 37 37 37 37 0 0 0 0 0 0 0 0 0 0 0 0 0 0 0 0 48 49 49 48 48 49 51 51 52 52 52 53 53 53 53 53 54 54 54 55 54 53 62 62 62 62 63 63 58 59 65 50 51 52 53 54 55 75 56 56 55 55 55 55 55 55 55 55 55 55 55 55 55 56 56 56 56 55 55 56 55 55 56 56 56 56 56 56 56 57 57 56 56 55 56 56 56 56 56 56 56 56 56 56 56 56 56 56 56 56 56 56 56 56 56 56 56 56 56 56 56 55 55 56 55 55 56 56 55 55 55 55 55 55 55 55 55 55 55 55 55 55 55 55 55 55 54 54 54 54 54 54 54 54 53 53 53 53 53 53 52 52 50 50 51 52 32 32 32 32 32 32 32 32 32 32 32 32 32 32 32 32 32 32 32 32 32 32 32 32 32 32 32 32 32 32 32 32 32 32 32 32 32 31 31 31 31 31 31 31 31 31 31 31 31 31 31 31 31 31 31 31 31 31 31 31 31 31 31 31 31 31 31 31 31 31 31 31 31 31 31 31 31 31 30 30 30 30 30 30 30 30 30 30 30 30 30 30 30 30 30 30 30 30 30 30 30 30 30 30 30 30 30 30 30 30 30 30 30 30 30 30 30 30 30 30 30 30 30 30
    0 0 0 0 0 0 0 0 0 0 0 0 0 0 0 0 0 0 0 0 0 0 0 0 0 0 0 0 0 0 0 0 0 0 0 0 0 0 0 34 34 34 34 34 34 34 34 34 34 34 34 34 34 34 34 34 34 34 34 34 34 34 34 34 34 34 34 34 34 34 34 34 34 34 34 34 34 34 34 34 34 34 34 34 34 34 34 34 34 34 34 34 35 35 35 34 34 34 34 34 34 34 34 34 34 34 34 34 35 35 35 35 35 35 35 35 35 35 35 35 35 35 35 35 35 35 35 35 35 35 35 35 35 35 35 35 35 35 35 35 35 35 35 35 35 35 35 35 35 35 35 35 35 35 35 35 35 35 35 35 35 35 35 35 35 35 35 35 35 35 35 35 35 35 35 35 35 35 35 35 35 35 35 35 35 36 36 36 36 36 36 36 36 36 36 36 36 36 36 36 36 36 36 36 36 36 36 36 36 36 36 36 0 0 0 0 0 0 0 0 0 0 0 0 0 0 0 0 0 0 0 0 0 0 0 0 0 0 0 0 0 0 0 0 63 63 63 63 64 64 64 64 64 64 63 64 64 64 64 64 65 65 65 65 65 65 66 65 66 66 66 65 66 66 66 66 66 66 66 66 66 66 64 64 64 64 0 0 0 0 0 0 0 0 37 37 37 37 37 37 37 37 37 37 37 37 37 37 37 37 37 37 37 37 37 37 37 37 37 37 37 37 37 37 37 37 37 37 37 37 37 37 37 37 37 37 37 37 37 37 37 37 37 37 37 37 37 37 37 37 37 37 37 37 37 37 0 0 0 0 0 0 0 0 0 0 0 0 0 0 0 0 49 49 48 48 49 51 51 52 52 52 52 52 53 53 53 54 54 54 55 55 53 54 62 62 62 62 61 59 60 63 64 51 52 53 54 75 75 56 55 55 55 55 55 55 55 55 55 55 55 55 55 55 55 55 56 56 55 55 56 55 56 56 56 56 56 56 56 56 53 54 56 56 55 55 56 56 56 56 56 56 56 56 56 56 56 56 56 56 56 56 56 56 56 56 56 56 56 56 56 56 55 56 56 56 55 56 55 55 55 55 55 55 55 55 55 55 55 55 55 55 55 55 55 55 54 54 54 54 54 54 54 54 54 53 53 54 53 53 52 52 49 50 50 51 32 32 32 32 32 32 32 32 32 32 32 32 32 32 32 32 32 32 32 32 32 32 32 32 32 32 32 32 32 32 32 32 32 32 32 32 32 32 31 31 31 31 31 31 31 31 31 31 31 31 31 31 31 31 31 31 31 31 31 31 31 31 31 31 31 31 31 31 31 31 31 31 31 31 31 31 31 31 31 30 30 30 30 30 30 30 30 30 30 30 30 30 30 30 30 30 30 30 30 30 30 30 30 30 30 30 30 30 30 30 30 30 30 30 30 30 30 30 30 30 30 30 30 30 30
    0 0 0 0 0 0 0 0 0 0 0 0 0 0 0 0 0 0 0 0 0 0 0 0 0 0 0 0 0 0 0 0 0 0 0 0 0 0 0 34 34 34 34 34 34 34 34 34 34 34 34 34 34 34 34 34 34 34 34 34 34 34 34 34 34 34 34 34 34 34 34 34 34 34 34 34 34 34 34 34 34 34 34 34 34 34 34 34 34 34 35 35 35 35 35 35 35 34 34 34 34 34 34 34 34 34 34 34 35 35 35 35 35 35 35 35 35 35 35 35 35 35 35 35 35 35 35 35 35 35 35 35 35 35 35 35 35 35 35 35 35 35 35 35 35 35 35 35 35 35 35 35 35 35 35 35 35 35 35 35 35 35 35 35 35 35 36 35 35 35 35 35 35 35 35 35 35 35 35 35 35 35 35 35 35 36 36 36 36 36 36 36 36 36 36 36 36 36 36 36 36 36 36 36 36 36 36 36 36 36 36 36 0 0 0 0 0 0 0 0 0 0 0 0 0 0 0 0 0 0 0 0 0 0 0 0 0 0 0 0 0 0 62 63 63 63 63 64 64 64 64 64 64 64 64 64 64 64 64 65 65 65 0 0 66 66 66 66 66 66 66 66 66 66 66 66 66 66 66 66 64 64 64 64 0 0 0 0 0 0 0 0 37 37 37 37 37 37 37 37 37 37 37 37 37 37 37 37 37 37 37 37 37 37 37 37 37 37 37 37 37 37 37 37 37 37 37 37 37 37 37 37 37 37 37 37 37 37 37 37 37 37 37 37 37 37 37 37 37 37 37 37 37 37 37 37 0 0 0 0 0 0 0 0 0 0 0 0 0 0 0 0 49 49 48 48 48 48 51 52 48 52 52 52 53 53 53 53 54 54 55 55 54 54 61 61 61 61 61 60 60 62 63 51 52 53 54 55 55 56 55 55 55 55 55 55 55 55 55 55 55 55 55 55 55 55 55 55 55 55 55 55 55 56 56 56 56 56 56 56 53 54 55 56 55 55 56 56 56 56 56 56 56 56 56 56 56 56 56 56 56 56 56 56 56 56 56 56 56 56 63 56 56 56 56 56 55 55 55 55 55 55 55 55 55 55 55 55 55 55 55 55 55 55 55 55 54 54 54 54 54 54 54 54 53 53 54 55 52 52 48 49 49 50 51 51 32 32 32 32 32 32 32 32 32 32 32 32 32 32 32 32 0 0 0 0 0 0 32 32 32 32 32 32 32 32 32 32 32 32 32 32 32 32 31 31 31 31 31 31 31 31 31 31 31 31 31 31 31 31 31 31 31 31 31 31 31 31 31 31 31 31 31 31 31 31 31 31 31 31 31 31 31 31 31 30 30 30 30 31 31 31 31 30 30 30 30 30 30 30 30 30 30 30 30 30 30 30 30 30 30 30 30 30 30 30 30 30 30 30 30 30 30 30 30 30 30 30 30 30 30
    0 0 0 0 0 0 0 0 0 0 0 0 0 0 0 0 0 0 0 0 0 0 0 0 0 0 0 0 0 0 0 0 0 0 0 0 0 0 0 34 34 34 34 34 34 34 34 34 34 34 34 34 34 34 34 34 34 34 34 34 34 34 34 34 34 34 34 34 34 34 34 34 34 34 34 34 34 34 34 34 34 34 34 34 34 34 34 34 34 35 35 35 35 35 35 35 35 35 35 35 34 34 34 34 34 34 34 34 35 35 35 35 35 35 35 35 35 35 35 35 35 35 35 35 35 35 35 35 35 35 35 35 35 35 35 35 35 35 35 35 35 35 35 35 35 35 35 35 35 35 35 35 35 35 35 35 35 35 35 35 35 35 35 35 35 36 36 36 36 35 35 35 35 35 35 35 35 35 35 36 36 36 36 36 36 36 36 36 36 36 36 36 36 36 36 36 36 36 36 36 36 36 36 36 36 36 36 36 36 36 36 0 0 0 0 0 0 0 0 0 0 0 0 0 0 0 0 0 0 0 0 0 0 0 0 0 0 0 0 52 52 61 62 63 63 63 64 64 64 64 64 64 64 64 64 64 65 65 65 65 65 66 66 66 66 66 66 66 66 66 66 66 66 66 66 66 66 64 64 64 64 64 64 0 0 0 0 0 0 0 36 37 37 37 37 37 37 37 37 37 37 37 37 37 37 37 37 37 37 37 37 37 37 37 37 37 37 37 37 37 37 37 37 37 37 37 37 37 37 37 37 37 37 37 37 37 37 37 37 37 37 37 37 37 37 37 37 37 37 37 37 37 37 37 37 37 0 0 0 0 0 0 0 0 0 0 0 0 0 0 0 0 49 49 49 47 48 48 51 52 52 52 52 52 53 53 53 53 54 54 55 55 55 42 60 61 60 60 60 60 60 51 52 52 52 53 54 54 42 55 55 55 55 55 55 55 55 55 55 55 55 55 55 55 54 54 53 54 54 55 55 55 55 56 56 56 49 56 56 56 53 54 55 56 55 56 56 56 56 56 56 56 56 56 56 56 56 56 56 56 56 56 56 56 56 56 56 56 56 56 63 56 56 56 56 55 55 55 55 55 55 55 55 55 55 55 55 55 55 55 55 55 55 55 54 54 54 54 54 54 54 54 54 53 53 53 53 53 52 52 48 49 49 50 50 0 0 0 32 32 32 32 32 32 32 32 32 32 32 32 32 0 0 0 0 0 0 0 0 0 0 0 0 0 0 0 0 32 31 32 32 32 32 32 31 31 31 31 31 31 31 31 31 31 31 31 31 31 31 31 31 31 31 31 31 31 31 31 31 31 31 31 31 31 31 31 31 31 31 31 31 31 31 31 31 31 31 31 31 31 31 31 31 31 30 30 30 30 30 30 30 30 30 30 30 30 30 30 30 30 30 30 30 30 30 30 30 30 30 30 30 30 30 30 30 30 30 30 30 30 30
    0 0 0 0 0 0 0 0 0 0 0 0 0 0 0 0 0 0 0 0 0 0 0 0 0 0 0 0 0 0 0 0 0 0 0 0 0 0 0 34 34 34 34 34 34 34 34 34 34 34 34 34 34 34 34 34 34 34 34 34 34 34 34 34 34 34 34 34 34 34 34 34 34 34 34 34 34 34 34 34 34 35 35 34 34 34 34 34 34 35 35 35 35 35 35 35 35 35 35 35 34 34 34 34 34 34 34 34 35 35 35 35 35 35 35 35 35 35 35 35 35 35 35 35 35 35 35 35 35 35 35 35 35 35 35 35 35 35 35 35 35 35 35 35 35 35 35 35 35 35 35 35 35 35 35 35 35 35 35 36 35 35 35 35 35 36 36 36 36 35 35 35 35 35 36 35 35 35 36 36 36 36 36 36 36 36 36 36 36 36 36 36 36 36 36 36 36 36 36 36 36 36 36 36 36 36 0 0 0 0 0 0 0 0 0 0 0 0 0 0 0 0 0 0 0 0 0 0 0 0 0 0 0 0 0 64 64 63 62 62 62 62 63 63 64 64 64 64 64 64 64 64 65 65 65 65 65 65 65 65 66 66 66 66 66 66 66 66 66 66 66 66 66 66 66 66 64 64 64 64 64 64 64 0 0 0 0 0 0 36 37 37 37 37 37 37 37 37 37 37 37 37 37 37 37 37 37 37 37 37 37 37 37 37 37 37 37 37 37 37 37 37 37 37 37 37 37 37 37 37 37 37 37 37 37 37 37 37 37 37 37 37 37 37 37 37 37 37 37 37 37 37 37 37 37 37 0 0 0 0 0 0 0 0 0 0 0 0 0 0 0 0 49 49 49 47 48 48 51 52 52 52 52 52 53 53 53 53 54 54 55 55 55 56 58 60 60 60 61 51 52 52 52 52 52 53 53 54 55 44 55 55 55 55 55 55 54 54 54 54 54 53 54 54 53 53 54 54 55 55 55 55 55 56 56 56 56 56 56 56 53 54 56 56 56 56 56 56 56 56 56 56 56 56 56 56 56 56 56 56 56 56 56 56 56 56 56 56 56 56 63 56 56 56 55 55 55 56 55 55 56 56 55 55 55 55 55 55 55 55 55 55 55 55 55 54 54 54 54 54 54 54 54 54 53 53 53 52 52 52 48 49 50 50 0 0 0 0 0 0 0 0 0 0 32 32 33 0 0 0 0 0 0 0 0 0 0 0 0 0 36 0 0 0 0 0 0 0 31 31 31 32 0 0 0 0 0 0 0 31 31 31 38 38 38 38 38 32 32 32 31 31 31 31 31 31 31 31 31 31 31 31 31 31 31 31 31 31 31 31 31 31 31 31 31 31 31 31 31 31 31 31 31 31 31 31 31 31 31 31 30 30 30 30 30 30 30 30 30 30 30 30 30 30 30 30 30 30 30 30 30 30 30 30 30 30 30 30 30 30 30
    0 0 0 0 0 0 0 0 0 0 0 0 0 0 0 0 0 0 0 0 0 0 0 0 0 0 0 0 0 0 0 0 0 0 0 0 0 0 0 34 34 34 34 34 34 34 34 34 34 34 34 34 34 34 34 34 34 34 34 34 34 34 34 34 34 34 34 34 34 34 34 34 34 34 34 34 34 34 34 34 34 35 35 34 34 34 34 34 34 35 35 35 35 35 35 35 35 35 35 35 34 34 35 35 34 34 34 34 35 35 35 35 35 35 35 35 35 35 35 35 35 35 35 35 35 35 35 35 35 35 35 35 35 35 35 35 35 35 35 35 35 35 35 35 35 35 35 35 35 35 35 35 35 35 35 35 35 35 36 36 35 35 35 35 35 36 36 35 35 36 35 36 36 36 36 36 35 35 36 36 36 36 36 36 36 36 36 36 36 36 36 36 36 36 36 36 36 36 36 36 36 36 36 36 0 0 0 0 0 0 0 0 0 0 0 0 0 0 0 0 0 0 0 0 0 0 0 0 0 0 0 0 0 0 63 64 63 63 63 63 63 63 63 64 64 65 64 64 64 64 65 65 65 65 65 65 65 66 66 66 66 66 66 66 66 66 66 66 66 66 66 66 67 67 66 64 64 64 64 64 64 64 64 0 0 0 0 37 37 37 37 37 37 37 37 37 37 37 37 37 37 37 37 37 37 37 37 37 37 37 37 37 37 37 37 37 37 37 37 37 37 37 37 37 37 37 37 37 37 37 37 37 37 37 37 37 37 37 37 37 37 37 37 37 37 37 37 37 37 37 37 37 37 37 37 37 37 0 0 0 0 0 0 0 0 0 0 0 0 0 0 0 49 49 49 47 48 47 51 52 52 52 52 52 52 52 53 53 54 54 55 55 55 56 54 54 61 61 61 51 52 52 52 52 53 53 53 54 54 46 46 48 49 51 52 53 51 52 52 53 52 53 54 55 55 55 55 55 55 55 55 55 55 56 56 56 56 56 56 56 56 56 56 56 56 56 56 56 56 56 56 56 56 56 56 56 56 56 56 56 56 56 56 56 56 56 56 56 56 56 56 56 56 56 56 56 55 56 56 56 56 55 55 55 55 55 55 55 55 55 55 55 55 55 54 54 54 54 54 54 54 54 54 54 53 53 53 52 52 52 48 49 50 50 0 0 0 0 0 0 0 0 0 0 0 0 0 35 36 36 36 36 36 36 36 36 36 36 36 36 36 36 0 0 0 0 0 0 0 0 33 0 0 0 36 36 36 0 0 0 0 31 38 38 38 38 37 37 32 32 0 0 0 0 0 0 0 0 31 31 31 31 31 31 31 31 31 31 31 31 31 32 31 31 31 31 31 31 31 31 31 31 31 31 31 32 32 32 32 31 30 30 30 30 30 31 31 30 30 30 30 30 31 31 31 31 30 30 30 30 30 30 30 30 30 30 30 30 30 30 30
    0 0 0 0 0 0 0 0 0 0 0 0 0 0 0 0 0 0 0 0 0 0 0 0 0 0 0 0 0 0 0 0 0 0 0 0 0 0 0 34 34 34 34 34 34 34 34 34 34 34 34 34 34 34 34 34 34 34 34 34 34 34 34 34 34 34 34 34 34 34 34 34 34 34 34 34 34 34 34 34 34 35 35 34 34 34 34 34 34 35 35 35 35 35 35 35 35 35 35 35 34 35 35 35 35 35 34 34 34 35 35 35 35 35 35 35 35 35 35 35 35 35 35 35 35 35 35 35 35 35 35 35 35 35 35 35 35 35 35 35 35 35 35 35 35 35 35 35 35 35 35 35 35 35 35 35 35 36 36 36 36 35 36 35 35 36 36 35 35 35 35 36 36 36 36 35 35 35 36 36 36 36 36 36 36 36 36 36 36 36 36 36 36 36 36 36 36 36 36 36 36 36 37 0 0 0 0 0 0 0 0 0 0 0 0 0 0 0 0 0 0 0 0 0 0 0 0 0 0 0 0 0 0 0 63 64 63 63 63 63 64 64 64 65 65 65 65 65 64 65 65 65 65 65 65 65 66 66 66 66 66 66 66 66 66 66 66 66 66 66 66 67 67 64 64 64 64 0 0 0 0 0 0 0 0 0 37 37 37 37 37 37 37 37 37 37 37 37 37 37 37 37 37 37 37 37 37 37 37 37 37 37 37 37 37 37 37 37 37 37 37 37 37 37 37 37 37 37 37 37 37 37 37 37 37 37 37 37 37 37 37 37 37 37 37 37 37 37 37 37 37 37 37 37 37 37 37 0 0 0 0 0 0 0 0 0 0 0 0 0 0 0 0 49 49 49 49 51 51 52 52 52 52 52 52 52 53 53 54 54 54 55 55 54 54 54 54 61 62 51 52 52 53 52 53 53 53 53 54 46 46 47 50 51 51 52 52 52 52 53 52 53 54 55 55 47 56 56 56 55 55 55 55 55 55 56 56 56 56 56 56 56 56 56 56 56 56 56 56 56 56 56 56 56 56 56 56 56 56 56 56 56 56 56 56 56 56 56 56 55 56 56 56 56 56 55 55 56 56 56 56 55 55 55 55 55 55 55 55 55 55 55 55 55 54 54 54 54 54 54 54 54 54 53 53 53 53 52 52 52 52 50 50 50 0 0 0 0 36 36 36 36 0 0 0 0 35 35 36 36 36 36 36 36 36 36 36 36 36 36 36 36 36 36 36 36 36 36 36 44 44 45 0 36 36 36 36 36 36 36 36 37 37 37 37 37 37 37 38 0 0 0 0 0 0 0 0 0 36 0 0 0 0 0 0 0 0 0 0 0 30 30 31 34 31 31 0 0 31 31 31 31 31 31 31 32 32 32 33 31 30 30 30 30 30 31 31 31 30 31 31 0 0 0 0 0 30 30 30 30 30 30 30 30 30 30 30 30 30 30 30
    0 0 0 0 0 0 0 0 0 0 0 0 0 0 0 0 0 0 0 0 0 0 0 0 0 0 0 0 0 0 0 0 0 0 0 0 0 0 0 34 34 34 34 34 34 34 34 34 34 34 34 34 34 34 34 34 34 34 34 34 34 34 34 34 34 34 34 34 34 34 34 34 34 34 34 34 34 34 34 34 34 35 35 35 34 34 34 34 34 34 35 35 35 35 35 35 35 35 35 35 35 35 35 35 35 35 34 34 34 35 35 35 35 35 35 35 35 35 35 35 35 35 35 35 35 35 35 35 35 35 35 35 35 35 35 35 35 35 35 35 35 35 35 35 35 35 35 35 35 35 35 35 35 35 35 35 35 35 36 36 36 36 36 36 36 36 35 35 35 36 35 36 36 36 35 35 35 35 36 36 36 36 36 36 36 36 36 36 36 36 36 36 36 36 36 36 36 36 36 36 36 37 37 0 0 0 0 0 0 0 0 0 0 0 0 0 0 0 0 0 0 0 0 0 0 0 0 0 0 0 0 0 0 63 64 64 64 64 64 64 64 64 65 65 65 65 65 65 65 65 65 65 65 66 66 66 66 66 66 66 66 66 66 66 66 66 66 66 67 66 66 64 64 64 64 64 64 0 0 0 0 0 0 0 0 37 37 37 37 37 37 37 37 37 37 37 37 37 37 37 37 37 37 37 37 37 37 37 37 37 37 37 37 37 37 37 37 37 37 37 37 37 37 37 37 37 37 37 37 37 37 37 37 37 37 37 37 37 37 37 37 37 37 37 37 37 37 37 37 37 37 37 37 37 37 37 37 0 0 0 0 0 0 0 0 0 0 0 0 0 0 0 0 49 49 49 49 50 51 51 52 52 52 52 51 52 52 53 54 54 54 55 55 54 54 47 54 62 54 51 52 53 53 53 53 53 53 53 54 46 46 55 55 55 55 55 55 55 52 52 52 53 54 55 45 46 56 56 56 56 56 56 56 56 56 56 56 56 56 56 56 56 56 56 56 56 56 56 56 56 56 56 56 56 56 56 56 56 56 56 56 56 56 56 56 56 56 56 56 55 56 56 56 56 56 55 56 56 56 56 56 56 55 55 55 55 55 55 55 55 55 55 55 55 54 54 54 54 54 54 54 54 54 53 53 53 53 52 52 52 52 50 50 50 50 0 0 0 36 36 36 36 36 36 36 36 36 36 36 36 36 36 36 36 36 36 36 36 36 36 36 36 36 36 36 36 36 36 36 36 36 36 36 36 36 36 36 36 36 36 36 36 36 36 36 37 37 37 37 38 0 0 0 0 0 0 0 0 36 36 0 0 0 0 0 0 0 35 35 36 36 36 36 35 36 36 0 0 0 0 0 0 0 0 0 0 36 33 33 33 33 34 30 31 31 31 0 0 29 0 0 0 0 0 0 0 0 0 30 30 30 30 0 0 0 0 35 35 36 0 0
    0 0 0 0 0 0 0 0 0 0 0 0 0 0 0 0 0 0 0 0 0 0 0 0 0 0 0 0 0 0 0 0 0 0 0 0 0 0 0 34 34 34 34 34 34 34 34 34 34 34 34 34 34 34 34 34 34 34 34 34 34 34 34 34 34 34 34 34 34 34 34 34 34 34 34 34 34 34 34 34 34 35 35 35 35 34 34 34 34 34 34 35 35 35 35 35 35 35 35 35 35 35 35 35 35 35 35 35 35 35 35 35 35 35 35 35 35 35 35 35 35 35 35 35 35 35 35 35 35 35 35 35 35 35 35 35 35 35 35 35 35 35 35 35 35 35 35 35 35 35 35 35 35 35 35 36 36 36 36 36 36 36 36 36 36 35 35 35 35 36 36 36 0 0 35 35 36 36 36 36 36 36 36 36 36 36 36 36 36 36 36 36 36 36 36 36 36 36 36 36 0 0 0 0 0 0 0 0 0 0 0 0 0 0 0 0 0 0 0 0 0 0 0 0 0 0 0 0 0 0 0 0 63 63 64 64 64 64 64 64 64 64 65 65 65 65 65 65 74 66 66 66 66 66 66 66 66 67 67 67 67 67 67 67 66 66 66 66 64 64 64 64 64 64 64 64 64 0 0 0 0 0 0 37 37 37 37 37 37 37 37 37 37 37 37 37 37 37 37 37 37 37 37 37 37 37 37 37 37 37 37 37 37 37 37 37 37 37 37 37 37 37 37 37 37 37 37 37 37 37 37 37 37 37 37 37 37 37 37 37 37 37 37 37 37 37 37 37 37 37 37 37 37 37 37 37 37 38 0 0 0 0 0 0 0 0 0 0 0 0 0 0 0 0 49 49 49 50 51 51 51 52 52 50 51 51 52 53 54 54 54 54 54 54 54 54 54 54 54 55 53 53 53 53 53 53 53 53 54 46 46 55 55 55 55 55 55 55 52 53 53 53 54 55 45 46 56 56 56 56 56 56 56 56 56 56 56 55 56 56 56 56 56 56 56 56 56 56 56 56 56 56 56 56 56 56 56 56 56 56 56 56 56 56 56 56 56 56 56 55 55 56 56 56 56 56 56 56 56 56 56 56 55 55 55 55 55 55 55 55 55 55 55 55 54 54 54 54 54 54 54 54 54 53 53 53 53 52 52 52 52 50 50 50 0 0 0 0 36 36 36 36 36 36 36 36 36 36 36 36 36 36 36 36 36 36 36 36 36 36 36 36 36 36 36 36 36 36 36 36 36 36 36 36 36 36 36 36 36 36 36 36 36 36 36 37 37 36 36 36 36 36 36 36 36 36 36 36 36 36 36 0 0 0 0 0 36 36 36 36 36 36 36 36 36 36 36 36 36 36 35 35 35 36 36 36 36 36 35 35 35 35 35 35 35 35 36 35 35 35 35 35 35 36 0 0 0 0 0 0 0 31 0 0 35 35 35 35 35 35 35
    0 0 0 0 0 0 0 0 0 0 0 0 0 0 0 0 0 0 0 0 0 0 0 0 0 0 0 0 0 0 0 0 0 0 0 0 0 0 0 34 34 34 34 34 34 34 34 34 34 34 34 34 34 34 34 34 34 34 34 34 34 34 34 34 34 34 34 34 34 34 34 34 34 34 34 34 34 34 34 34 34 34 35 35 35 35 34 34 34 34 35 35 35 35 35 35 35 35 35 35 35 35 35 35 35 35 35 35 35 35 35 35 35 35 35 35 35 35 35 35 35 35 35 35 35 35 35 35 35 35 35 35 35 35 35 35 35 35 35 35 35 35 35 35 35 35 35 35 35 35 35 35 35 35 36 36 36 36 36 35 35 35 35 35 36 35 35 35 35 36 0 0 0 35 35 36 36 36 36 36 36 36 36 36 36 36 36 36 36 36 36 36 36 36 36 36 36 0 0 0 0 0 0 0 0 0 0 0 0 0 0 0 0 0 0 0 0 0 0 0 0 0 0 0 0 0 0 0 0 0 0 63 64 64 64 64 64 64 65 65 65 65 65 65 65 65 65 66 74 67 67 67 67 67 67 67 67 67 67 67 67 67 67 67 67 66 64 64 64 64 64 64 64 64 64 0 0 0 0 0 0 37 37 37 37 37 37 37 37 37 37 37 37 37 37 37 37 37 37 37 37 37 37 37 37 37 37 37 37 37 37 37 37 37 37 37 37 37 37 37 37 37 37 37 37 37 37 37 37 37 37 37 37 37 37 37 37 37 37 37 37 37 37 37 37 37 37 37 37 37 37 37 37 37 37 37 37 38 38 0 0 0 0 0 0 0 0 0 0 0 0 0 0 0 49 49 49 50 50 51 51 51 52 50 51 51 52 53 53 54 54 54 54 54 54 54 54 54 54 55 56 53 53 53 53 53 53 53 45 46 55 55 55 55 55 55 55 55 53 53 53 53 54 55 45 46 47 56 56 56 56 56 56 56 56 56 56 56 56 55 55 56 56 56 56 56 56 56 56 56 56 56 56 56 56 56 56 56 56 56 56 56 56 56 56 55 55 55 55 55 55 56 56 56 56 56 56 56 56 56 56 56 55 55 55 55 55 55 55 55 55 55 55 54 54 54 54 54 54 54 54 54 53 53 53 53 52 52 52 52 50 50 50 50 0 0 0 36 36 36 36 36 36 36 36 36 36 37 37 36 36 36 36 36 36 36 36 36 36 36 36 36 36 36 36 36 36 36 36 36 36 36 36 36 36 36 36 36 36 36 36 37 37 37 37 37 37 37 36 36 36 36 36 36 36 36 36 36 36 36 36 36 36 36 36 36 36 36 36 36 36 36 36 36 36 36 36 36 36 36 36 36 36 36 36 36 36 36 35 36 36 36 36 36 35 36 36 36 35 35 35 35 35 36 36 0 0 0 0 35 35 35 0 35 35 34 35 35 35 35 35
    0 0 0 0 0 0 0 0 0 0 0 0 0 0 0 0 0 0 0 0 0 0 0 0 0 0 0 0 0 0 0 0 0 0 0 0 0 0 0 34 34 34 34 34 34 34 34 34 34 34 34 34 34 34 34 34 34 34 34 34 34 34 34 34 34 34 34 34 34 34 34 34 34 34 34 34 34 34 34 34 34 34 34 34 35 35 34 34 34 34 35 35 35 35 35 35 35 35 35 35 35 35 35 35 35 35 35 35 35 35 35 35 35 35 35 35 35 35 35 35 35 35 35 35 35 35 35 35 35 35 35 35 35 35 35 35 35 35 35 35 35 35 35 35 35 35 35 35 35 36 36 35 35 35 36 36 36 36 35 35 35 35 35 35 35 35 35 36 36 36 36 0 35 35 35 35 36 36 36 36 36 36 36 36 36 36 36 36 36 0 0 0 0 43 43 43 0 0 0 60 0 0 0 0 0 0 0 0 0 0 0 0 0 0 0 0 0 0 0 0 0 0 0 0 0 0 0 0 0 0 64 64 64 65 64 65 65 65 65 65 65 65 65 66 0 0 0 67 67 67 67 67 67 67 67 67 67 67 67 67 67 67 67 67 66 64 64 64 0 0 0 0 0 64 64 0 0 0 0 37 37 37 37 37 37 37 37 37 37 37 37 37 37 37 37 37 37 37 37 37 37 37 37 37 37 37 37 37 37 37 37 37 37 37 37 37 37 37 37 37 37 37 37 37 37 37 37 37 37 37 37 37 37 37 37 37 37 37 37 37 37 37 37 37 37 37 37 37 37 37 37 37 37 37 37 37 37 38 38 0 0 0 0 0 0 0 0 0 0 0 0 0 0 0 49 49 49 50 50 50 50 51 51 50 51 51 52 53 53 53 53 47 49 52 53 54 54 54 55 55 56 57 54 53 53 53 53 53 45 46 55 55 55 55 55 55 55 55 53 52 53 53 54 55 45 46 47 56 56 56 56 56 56 56 56 56 56 56 56 55 55 56 56 56 56 56 56 56 56 57 56 56 56 56 56 56 56 56 56 56 56 56 56 56 55 55 55 55 55 55 56 56 56 56 56 55 55 56 56 56 56 56 55 55 55 55 55 55 55 55 54 54 54 54 54 54 54 54 54 54 54 53 53 53 53 53 52 52 52 52 49 50 50 0 0 0 0 36 36 36 36 36 37 36 36 36 37 37 37 37 37 36 36 36 36 36 36 36 36 36 36 36 36 36 36 36 36 36 36 36 36 36 36 36 36 36 36 36 36 36 36 37 37 37 36 36 36 36 36 36 36 36 36 36 36 36 36 36 36 36 36 36 36 36 36 36 36 36 36 36 36 36 36 36 36 36 36 36 36 36 36 36 36 36 36 35 35 36 36 36 36 36 36 36 35 36 35 35 35 35 35 35 35 35 35 35 35 35 35 35 35 35 35 35 35 35 35 35 35 35 35
    0 0 0 0 0 0 0 0 0 0 0 0 0 0 0 0 0 0 0 0 0 0 0 0 0 0 0 0 0 0 0 0 0 0 0 0 0 0 0 34 34 34 34 34 34 34 34 34 34 34 34 34 34 34 34 34 34 34 34 34 34 34 34 34 34 34 34 34 34 34 34 34 34 34 34 34 34 34 34 34 34 34 34 34 34 34 34 34 34 34 35 35 35 35 35 35 35 35 35 35 35 34 35 35 35 35 35 35 35 35 35 35 35 35 35 35 35 35 35 35 35 35 35 35 35 35 35 35 35 35 35 35 35 35 35 35 35 35 35 35 35 35 35 35 35 35 35 35 35 36 36 36 36 36 36 35 35 35 35 35 35 35 35 35 36 36 36 36 36 36 36 36 35 35 35 36 36 36 36 36 36 35 36 36 36 36 36 36 36 42 0 0 0 43 43 43 0 0 0 0 0 0 0 0 0 0 0 0 0 0 0 0 0 0 0 0 0 0 0 0 0 0 0 0 0 0 0 63 63 64 64 65 65 65 65 65 65 65 65 65 65 65 66 66 67 67 67 67 67 67 67 67 67 67 67 67 67 67 67 67 67 67 67 66 64 64 64 0 0 0 0 0 0 0 64 0 0 36 37 37 37 37 37 37 37 37 37 37 37 37 37 37 37 37 37 37 37 37 37 37 37 37 37 37 37 37 37 37 37 37 37 37 37 37 37 37 37 37 37 37 37 37 37 37 37 37 37 37 37 37 37 37 37 37 37 37 37 37 37 37 37 37 37 37 37 37 37 37 37 37 37 37 37 37 37 37 37 37 38 0 0 0 0 0 0 0 0 0 0 0 0 0 0 0 49 49 49 50 50 50 50 50 50 50 51 51 52 52 53 53 48 48 50 52 53 53 54 54 55 56 57 58 60 53 53 53 53 53 45 46 55 55 55 55 55 55 55 55 53 52 53 53 54 55 46 56 56 56 56 56 56 56 56 56 56 56 56 56 56 56 56 56 56 56 56 56 56 56 56 57 56 56 56 56 56 56 56 56 56 56 56 56 56 56 55 55 55 55 55 55 56 56 56 56 56 55 55 56 56 56 56 56 55 55 55 55 55 55 55 55 54 54 54 54 54 54 54 54 54 54 54 53 53 53 53 53 52 52 52 51 49 50 50 0 0 0 0 37 36 36 36 36 37 37 37 37 37 37 37 37 37 36 36 36 36 36 36 36 36 36 36 36 36 36 36 36 36 36 36 36 36 36 36 36 36 36 36 36 36 36 36 37 37 37 36 36 36 36 36 36 36 36 36 36 36 36 36 36 36 36 36 36 36 36 36 36 36 36 36 36 36 36 36 36 36 36 36 36 36 36 36 36 36 36 36 36 36 36 36 36 36 36 36 36 36 36 35 35 35 35 35 35 35 35 35 35 35 35 35 35 35 35 35 35 35 35 35 35 35 35 35
    0 0 0 0 0 0 0 0 0 0 0 0 0 0 0 0 0 0 0 0 0 0 0 0 0 0 0 0 0 0 0 0 0 0 0 0 0 0 0 34 34 34 34 34 34 34 34 34 34 34 34 34 34 34 34 34 34 34 34 34 34 34 34 34 34 34 34 34 34 34 34 34 34 34 34 34 34 34 34 34 34 34 34 34 34 35 34 35 34 34 35 35 34 35 35 35 35 35 35 35 34 34 35 35 35 35 35 35 35 35 35 35 35 35 35 35 35 35 35 35 35 35 35 35 35 35 35 35 35 35 35 35 35 35 35 35 35 35 35 35 35 35 35 35 35 35 35 35 35 35 36 36 36 36 35 35 35 35 35 35 35 35 35 35 35 35 35 36 35 36 36 36 35 36 35 36 36 36 36 36 36 35 36 36 36 36 36 36 36 42 43 43 43 43 43 43 0 0 0 0 0 0 0 0 0 0 0 0 0 0 0 0 0 0 0 0 0 0 0 0 0 0 0 0 0 0 63 64 64 64 65 65 65 65 66 66 66 66 66 66 66 66 67 67 67 67 67 67 67 67 67 67 67 67 67 67 67 67 66 65 65 65 65 65 65 0 0 0 0 0 0 0 0 0 0 36 36 37 37 37 37 37 37 37 37 37 37 37 37 37 37 37 37 37 37 37 37 37 37 37 37 37 37 37 37 37 37 37 37 37 37 37 37 37 37 37 37 37 37 37 37 37 37 37 37 37 37 37 37 37 37 37 37 37 37 37 37 37 37 37 37 37 37 37 37 37 37 37 37 37 37 37 37 37 37 37 37 37 38 0 0 0 0 0 0 0 0 0 0 0 0 0 0 0 0 49 49 50 50 50 50 51 50 50 51 51 51 51 52 51 51 51 51 52 53 53 54 54 55 56 56 58 53 53 53 53 53 53 45 46 55 55 55 55 55 55 55 55 52 52 53 53 53 54 46 47 48 56 56 56 56 55 56 56 56 56 56 56 56 56 56 55 56 55 56 56 56 57 57 57 56 56 56 56 56 56 56 56 56 56 56 56 56 56 55 55 55 55 55 55 56 56 55 56 56 55 55 56 56 56 56 56 55 55 55 55 55 55 55 55 55 54 54 54 54 54 54 54 54 54 54 53 53 53 53 53 53 52 52 49 50 50 50 0 0 0 37 37 36 36 36 37 37 37 37 37 37 37 37 37 37 36 36 36 36 36 36 36 36 36 36 36 36 36 36 36 36 36 36 36 36 36 36 36 36 36 36 36 36 36 36 37 37 37 36 36 36 36 36 36 36 36 36 36 36 36 36 36 36 36 36 36 36 36 36 36 36 36 36 36 36 36 36 36 36 36 36 36 36 36 36 36 36 36 36 36 36 36 36 36 36 36 36 36 36 36 35 35 35 35 35 35 35 35 35 35 35 35 35 35 35 35 35 35 35 35 35 35 35 35 35
    0 0 0 0 0 0 0 0 0 0 0 0 0 0 0 0 0 0 0 0 0 0 0 0 0 0 0 0 0 0 0 0 0 0 0 0 0 0 0 34 34 34 34 34 34 34 34 34 34 34 34 34 34 34 34 34 34 34 34 34 34 34 34 34 34 34 34 34 34 34 34 34 34 34 34 34 34 34 34 34 34 34 34 34 34 34 34 35 34 34 35 35 34 35 35 35 35 35 35 34 34 34 35 35 35 35 35 35 35 35 35 35 35 35 35 35 35 35 35 35 35 35 35 35 35 35 35 35 35 35 35 35 35 35 35 35 35 35 35 35 35 35 35 35 35 35 35 35 35 35 35 35 35 35 35 35 35 35 35 35 35 35 35 35 35 35 35 35 36 36 36 35 36 36 36 36 36 36 36 36 36 36 36 36 36 36 36 36 36 0 0 0 0 42 43 43 0 0 0 0 0 0 0 0 0 0 0 0 0 0 0 0 0 0 0 0 0 0 0 0 0 0 0 0 65 65 64 64 65 65 65 65 66 66 66 66 66 66 66 67 67 67 67 67 67 67 67 67 67 67 67 67 67 67 67 67 66 65 65 65 65 0 0 0 0 0 0 0 0 0 0 0 0 37 37 37 37 37 37 37 37 37 37 37 37 37 37 37 37 37 37 37 37 37 37 37 37 37 37 37 37 37 37 37 37 37 37 37 37 37 37 37 37 37 37 37 37 37 37 37 37 37 37 37 37 37 37 37 37 37 37 37 37 37 37 37 37 37 37 37 37 37 37 37 37 37 37 37 37 37 37 37 37 37 37 37 37 37 38 38 0 0 0 0 0 0 0 0 0 0 0 0 0 0 0 49 49 49 50 50 50 51 51 51 51 52 51 51 51 51 51 51 51 52 52 53 54 54 55 55 55 52 53 53 53 53 53 53 45 45 55 55 55 55 55 55 55 55 52 52 52 53 53 54 51 50 51 51 51 55 55 55 55 56 56 56 56 56 56 56 56 56 56 56 56 56 56 57 57 56 56 56 55 56 56 56 56 56 56 56 56 56 56 55 55 55 55 55 55 55 55 55 55 56 56 55 55 56 56 56 56 55 55 55 55 55 55 55 55 55 54 54 54 54 54 54 54 54 54 54 54 53 53 53 53 53 52 52 52 49 50 50 0 0 0 0 37 37 36 37 36 37 37 37 37 37 37 37 37 37 37 37 36 36 36 36 36 36 36 36 36 36 36 36 36 36 36 36 36 36 36 36 36 36 36 36 36 36 36 36 37 37 37 37 36 36 36 36 36 36 36 36 36 36 36 36 36 36 36 36 36 36 36 36 36 36 36 36 36 36 36 36 36 36 36 36 36 36 36 36 36 36 36 36 36 36 36 36 36 36 36 36 36 36 36 36 35 35 35 35 35 35 35 35 35 35 35 35 35 35 35 35 35 35 35 35 35 35 35 35 35
    0 0 0 0 0 0 0 0 0 0 0 0 0 0 0 0 0 0 0 0 0 0 0 0 0 0 0 0 0 0 0 0 0 0 0 0 0 0 0 34 34 34 34 34 34 34 34 34 34 34 34 34 34 34 34 34 34 34 34 34 34 34 34 34 34 34 34 34 34 34 34 34 34 34 34 34 34 34 34 34 34 34 34 34 34 34 34 34 34 34 34 34 34 35 35 35 35 35 34 34 34 35 35 35 35 35 35 35 35 35 35 35 35 35 35 35 35 35 35 35 35 35 35 35 35 35 35 35 35 35 35 35 35 35 35 35 35 35 35 35 35 35 35 35 35 35 35 35 35 35 35 35 35 35 35 35 35 35 35 35 35 35 35 35 35 35 35 35 35 36 36 35 35 36 36 36 36 36 36 36 36 36 36 36 36 36 36 36 0 0 0 0 0 0 0 0 0 0 0 0 0 0 0 0 0 0 0 0 0 0 0 0 0 0 0 0 0 0 0 0 0 64 65 65 65 65 65 65 65 66 66 66 66 66 66 66 67 67 67 67 67 67 67 67 67 67 67 67 67 67 67 67 67 67 66 65 65 65 65 65 0 0 0 0 0 0 0 0 0 0 0 37 37 37 37 37 37 37 37 37 37 37 37 37 37 37 37 37 37 37 37 37 37 37 37 37 37 37 37 37 37 37 37 37 37 37 37 37 37 37 37 37 37 37 37 37 37 37 37 37 37 37 37 37 37 37 37 37 37 37 37 37 37 37 37 37 37 37 37 37 37 37 37 37 37 37 37 37 37 37 37 37 37 37 37 37 37 37 38 38 0 0 0 0 0 0 0 0 0 0 0 0 0 0 0 49 49 49 50 50 50 51 51 52 52 52 50 51 51 51 51 51 51 52 52 53 53 54 54 54 50 51 51 52 52 52 53 53 45 45 47 55 55 55 55 55 55 55 52 52 52 52 53 51 51 51 51 51 51 55 55 55 56 56 56 56 56 56 56 56 56 56 56 56 56 56 56 57 57 56 56 56 55 56 56 56 56 56 56 56 56 56 55 55 55 55 55 55 55 55 55 55 55 55 55 55 55 56 56 55 55 55 55 55 55 55 55 55 55 54 54 54 54 54 54 54 54 54 54 54 54 53 53 53 53 53 53 52 53 49 49 50 0 0 0 0 37 37 36 37 36 37 37 37 37 37 37 37 37 37 37 37 37 36 36 36 36 36 36 36 36 36 37 37 37 37 37 36 37 37 37 37 36 36 36 36 36 36 36 36 36 36 36 36 36 36 36 36 36 36 36 36 36 36 36 36 36 36 36 36 36 36 36 36 36 36 36 36 36 36 36 36 36 36 36 36 36 36 36 36 36 36 36 36 36 36 36 36 36 36 36 36 36 36 36 36 36 35 35 35 35 0 0 35 35 35 35 35 35 35 35 35 35 35 35 35 35 35 35 35 35
    0 0 0 0 0 0 0 0 0 0 0 0 0 0 0 0 0 0 0 0 0 0 0 0 0 0 0 0 0 0 0 0 0 0 0 0 0 0 0 34 34 34 34 34 34 34 34 34 34 34 34 34 34 34 34 34 34 34 34 34 34 34 34 34 34 34 34 34 34 34 34 34 34 34 34 34 34 34 34 34 34 34 34 34 34 34 34 34 34 34 34 34 34 35 35 35 35 34 34 34 34 35 35 35 35 35 34 35 35 35 35 35 35 35 35 35 35 35 35 35 35 35 35 35 35 35 35 35 35 35 35 35 35 35 35 35 35 35 35 35 35 35 35 35 35 35 35 35 35 35 35 35 35 35 35 35 35 35 35 35 35 35 35 35 35 35 35 35 35 35 35 35 35 36 36 36 36 36 36 36 36 36 36 36 36 36 36 36 37 38 0 0 0 0 0 0 0 0 46 46 0 0 0 0 0 52 0 0 0 0 0 0 0 0 0 0 0 0 0 0 64 64 65 65 65 65 65 66 66 66 66 66 66 66 67 67 67 67 67 67 67 67 67 67 67 67 67 67 67 67 67 67 68 66 65 65 65 0 0 0 0 0 0 0 0 0 0 0 37 37 37 37 37 37 37 37 37 37 37 37 37 37 37 37 37 37 37 37 37 37 37 37 37 37 37 37 37 37 37 37 37 37 37 37 37 37 37 37 37 37 37 37 37 37 37 37 37 37 37 37 37 37 37 37 37 37 37 37 37 37 37 37 37 37 37 37 37 37 37 37 37 37 37 37 37 37 37 37 37 37 37 37 37 37 37 37 37 37 37 38 0 0 0 0 0 0 0 0 0 0 0 0 0 0 0 49 49 49 50 50 50 51 51 52 52 52 50 50 51 51 51 51 51 52 52 52 50 49 49 49 50 50 51 51 52 52 46 45 43 44 45 47 48 49 50 50 51 51 52 52 52 52 52 52 52 52 53 53 53 54 54 55 55 56 56 56 56 56 56 56 56 56 56 56 56 56 56 57 57 56 56 55 55 56 56 56 56 56 56 56 56 56 56 56 55 55 55 55 55 55 55 55 55 55 56 55 56 56 55 55 55 55 54 54 54 55 55 55 55 54 54 54 54 54 54 54 54 54 54 54 53 53 53 53 53 53 53 52 53 49 49 0 0 0 0 0 37 36 36 37 36 37 37 37 37 37 37 37 37 37 37 37 37 37 36 36 36 36 36 36 37 37 37 37 37 37 37 37 37 37 38 36 36 36 36 36 36 36 36 36 36 36 36 36 36 36 36 36 36 36 36 36 36 36 36 36 36 36 36 36 36 36 36 36 36 36 36 36 36 36 36 36 36 36 36 36 36 36 36 36 36 36 36 36 36 36 36 36 36 36 36 36 36 36 36 36 36 36 35 35 36 0 36 36 36 35 35 35 35 35 35 35 35 35 35 35 35 35 35 35 35
    0 0 0 0 0 0 0 0 0 0 0 0 0 0 0 0 0 0 0 0 0 0 0 0 0 0 0 0 0 0 0 0 0 0 0 0 0 0 33 34 34 34 34 34 34 34 34 34 34 34 34 34 34 34 34 34 34 34 34 34 34 34 34 34 34 34 34 34 34 34 34 34 34 34 34 35 35 34 34 34 34 34 34 34 34 34 34 34 34 33 34 34 35 35 35 35 35 34 34 34 34 35 35 35 35 35 34 35 35 35 35 35 35 35 35 35 35 35 35 35 35 35 35 35 35 35 35 35 35 35 35 35 35 35 35 35 35 35 35 35 35 35 35 35 35 35 35 35 35 35 35 35 35 35 35 35 35 35 35 35 35 35 35 35 35 35 35 35 35 35 36 36 36 36 36 35 36 36 36 36 36 36 36 36 0 0 0 0 0 0 0 0 0 0 0 0 0 0 0 46 0 0 0 0 0 0 0 0 0 0 0 0 0 0 0 0 0 0 0 64 64 65 65 65 65 65 66 66 66 66 66 66 67 67 67 67 68 68 68 68 68 68 67 67 67 67 67 67 67 68 68 67 66 66 66 0 0 0 0 0 0 0 0 0 0 37 37 37 37 37 37 37 37 37 37 37 37 37 37 37 37 37 37 37 37 37 37 37 37 37 37 37 37 37 37 37 37 37 37 37 37 37 37 37 37 37 37 37 37 37 37 37 37 37 37 37 37 37 37 37 37 37 37 37 37 37 37 37 37 37 37 37 37 37 37 37 37 37 37 37 37 37 37 37 37 37 37 37 37 37 37 37 37 37 37 37 37 37 37 38 0 0 0 0 0 0 0 0 0 0 0 0 0 0 0 49 49 49 49 50 50 51 51 52 52 52 49 50 50 51 51 51 51 52 51 50 50 50 50 49 49 50 50 50 50 51 45 45 43 44 45 46 47 48 49 50 51 52 52 51 51 52 52 52 52 53 53 53 53 54 54 54 55 55 56 56 56 56 56 55 56 56 56 56 56 56 56 57 56 56 56 55 55 55 56 56 56 56 56 56 56 56 56 56 56 56 55 55 55 55 55 55 55 55 55 55 56 55 55 55 55 55 55 55 55 55 55 55 54 54 54 54 54 54 54 54 54 54 54 54 53 53 53 53 53 53 53 52 53 49 49 0 0 0 0 36 36 36 36 37 37 37 37 37 37 37 37 37 37 37 37 37 37 37 37 37 37 37 37 37 37 37 37 37 37 37 37 37 37 37 37 36 36 36 36 36 36 36 36 36 36 36 36 36 36 36 36 36 36 36 36 36 36 36 36 36 36 36 36 36 36 36 36 36 36 36 36 36 36 36 36 36 36 36 36 36 36 36 36 36 36 36 36 36 36 36 36 36 36 36 36 36 36 36 36 36 36 36 36 35 36 36 36 36 36 35 35 35 35 35 35 35 35 35 35 35 35 35 35 35 35
    0 0 0 0 0 0 0 0 0 0 0 0 0 0 0 0 0 0 0 0 0 0 0 0 0 0 0 0 0 0 0 0 0 0 0 0 0 0 0 34 34 34 34 34 34 34 34 34 34 34 34 34 34 34 34 34 34 34 34 34 34 34 34 34 34 34 34 34 34 34 34 34 34 34 34 35 35 35 35 35 35 34 34 34 34 34 34 34 34 35 35 35 35 35 35 35 35 35 34 34 35 35 35 35 35 35 34 35 35 35 35 35 35 35 35 35 35 35 35 35 35 35 35 35 35 35 35 35 35 35 35 35 35 35 35 35 35 35 35 35 35 35 35 35 35 35 35 35 35 35 35 35 35 35 35 35 35 35 35 35 35 35 35 35 35 35 35 35 35 35 36 36 36 36 36 36 35 35 35 35 36 36 36 36 0 0 0 0 0 0 0 0 0 0 0 0 0 0 0 0 0 0 0 0 0 0 0 0 0 0 0 0 0 0 0 0 0 0 65 65 65 65 65 65 66 66 66 67 0 0 0 0 0 67 68 68 68 68 68 68 68 68 68 68 68 68 68 68 68 68 66 66 66 0 0 0 0 0 0 0 0 0 0 37 37 37 37 37 37 37 37 37 37 37 37 37 37 37 37 37 37 37 37 37 37 37 37 37 37 37 37 37 37 37 37 37 37 37 37 37 37 37 37 37 37 37 37 37 37 37 37 37 37 37 37 37 37 37 37 37 37 37 37 37 37 37 37 37 37 37 37 37 37 37 37 37 38 37 37 37 37 37 37 37 37 37 37 37 37 37 37 37 37 37 37 37 37 37 37 38 38 0 0 0 0 0 0 0 0 0 0 0 0 0 0 0 49 49 49 49 50 50 51 51 51 52 52 49 50 50 50 51 51 51 50 50 50 52 53 52 49 49 49 49 50 50 49 50 45 45 45 46 47 48 49 50 51 52 53 48 49 50 51 52 52 53 53 53 53 53 54 54 55 55 52 54 54 55 55 55 56 56 56 56 56 56 56 56 56 56 56 55 55 55 55 55 55 56 56 56 56 56 56 56 56 55 55 55 55 55 55 55 55 55 55 55 55 55 55 55 55 55 55 55 55 55 55 55 54 54 54 54 54 54 54 54 54 54 54 53 53 53 53 53 53 53 54 52 53 49 49 0 0 0 0 36 36 36 37 37 37 37 37 37 37 37 37 37 37 37 37 37 37 37 37 37 37 37 37 37 37 37 37 37 37 37 37 37 36 37 36 36 36 36 36 36 36 36 36 36 36 36 36 36 36 36 36 36 36 36 36 36 36 36 36 36 36 36 36 36 36 36 36 36 36 36 36 36 36 36 36 36 36 36 36 36 36 36 36 36 36 36 36 36 36 36 36 36 36 36 36 36 36 36 36 36 36 36 36 35 36 36 36 36 36 36 36 36 36 36 35 35 35 35 35 35 36 36 36 35 35
    0 0 0 0 0 0 0 0 0 0 0 0 0 0 0 0 0 0 0 0 0 0 0 0 0 0 0 0 0 0 0 0 0 0 0 0 0 0 0 34 34 34 34 34 34 34 34 34 34 34 34 34 34 34 34 34 34 34 34 34 34 34 34 34 34 34 34 34 34 34 34 34 34 34 34 35 35 35 35 35 34 34 34 34 34 34 34 34 34 35 35 35 35 35 35 35 35 35 35 35 35 35 35 35 35 35 35 35 35 35 35 35 35 35 35 35 35 35 35 35 35 35 35 35 35 35 35 35 35 35 35 35 35 35 35 35 35 35 35 35 35 35 35 35 35 35 35 35 35 35 35 35 35 35 35 35 35 35 35 35 35 35 35 35 35 35 35 35 35 35 36 36 36 36 36 0 0 0 0 0 0 36 36 36 0 0 0 0 0 0 0 0 0 0 0 0 0 0 0 0 0 0 0 0 0 0 0 0 0 0 0 0 0 0 0 0 0 0 65 65 65 66 66 66 66 66 67 67 0 0 0 0 0 68 68 68 68 68 68 68 68 68 68 68 68 68 68 68 68 66 66 0 0 0 0 0 0 0 0 0 0 37 37 37 37 37 37 37 37 37 37 37 37 37 37 37 37 37 37 37 37 37 37 37 37 37 37 37 37 37 37 37 37 37 37 37 37 37 37 37 37 37 37 37 37 37 37 37 37 37 37 37 37 37 37 37 37 37 37 37 37 37 37 37 37 37 37 37 37 37 37 37 37 37 37 37 37 37 37 37 38 37 37 37 37 37 37 37 37 37 37 37 37 37 37 37 38 38 38 38 38 0 0 0 0 0 0 0 0 0 0 0 0 0 0 0 49 49 49 49 50 50 51 51 51 51 52 52 50 50 50 50 51 51 50 50 53 53 53 53 54 54 48 49 50 50 50 51 51 51 51 51 48 48 49 50 51 45 46 47 48 49 50 55 52 53 54 53 53 54 54 55 55 55 55 55 55 55 55 55 55 56 56 56 56 56 56 56 56 56 56 55 55 55 55 55 55 55 55 55 56 55 56 56 56 55 55 55 55 55 55 55 54 55 55 55 55 55 55 55 55 55 55 55 55 55 55 54 54 54 54 54 54 54 54 54 54 54 54 53 53 53 53 53 53 53 54 53 49 49 49 0 0 0 0 36 37 37 37 37 37 37 37 37 37 37 37 37 37 37 37 37 37 37 37 37 37 37 37 37 37 37 37 37 37 37 37 37 37 36 36 36 36 36 36 36 36 36 36 36 36 36 36 36 36 36 36 36 36 36 36 36 36 36 36 36 36 36 36 36 36 36 36 36 36 36 36 36 36 36 36 36 36 36 36 36 36 36 36 36 36 36 36 36 36 36 36 36 36 36 36 36 36 36 36 36 36 36 36 36 36 36 36 36 36 36 36 36 36 36 36 36 36 36 36 36 36 36 36 36 36
    0 0 0 0 0 0 0 0 0 0 0 0 0 0 0 0 0 0 0 0 0 0 0 0 0 0 0 0 0 0 0 0 0 0 0 0 0 0 0 34 34 34 34 34 34 34 34 34 34 34 34 34 34 34 34 34 34 34 34 34 34 34 34 34 34 34 34 34 34 34 34 34 34 34 34 34 35 35 34 34 34 34 34 34 34 34 34 34 34 34 35 35 35 35 35 35 35 35 35 35 35 35 35 35 35 35 35 35 35 35 35 35 35 34 35 35 35 35 35 35 35 35 35 35 35 35 35 35 35 35 35 35 35 35 35 35 35 35 35 35 35 35 35 35 35 35 35 35 35 35 35 35 35 35 35 35 35 35 35 35 35 35 35 35 35 35 35 35 35 35 36 36 36 36 0 0 0 0 0 0 0 0 0 0 0 0 0 0 0 0 0 0 0 0 0 0 0 0 0 0 0 0 0 0 0 0 0 0 0 0 0 0 0 0 0 66 66 66 66 66 66 66 66 66 67 67 67 68 0 0 0 0 68 68 68 68 68 68 68 68 68 68 68 68 68 69 68 66 66 66 0 0 0 0 0 0 0 0 0 37 37 37 37 37 37 37 37 37 37 37 37 37 37 37 37 37 37 37 37 37 37 37 37 37 37 37 37 37 37 37 37 37 37 37 37 37 37 37 37 37 37 37 37 37 37 37 37 37 37 37 37 37 37 37 37 37 37 37 37 37 37 37 37 37 37 37 37 37 37 37 37 37 37 37 37 37 37 37 38 38 38 37 37 37 37 37 37 37 37 38 38 38 38 38 38 37 38 38 38 38 38 0 0 0 0 0 0 0 0 0 0 0 0 0 0 0 49 49 49 49 49 50 50 50 51 51 52 52 50 52 50 50 51 51 50 50 53 53 53 53 54 54 47 48 49 50 50 51 51 51 51 51 51 51 52 50 44 45 45 47 48 49 49 50 52 53 54 54 55 55 55 55 55 55 55 55 55 55 55 55 55 55 56 56 56 56 56 56 56 56 56 55 55 55 55 55 56 56 55 56 55 55 55 56 56 55 56 56 56 55 55 55 54 55 55 55 55 55 55 55 55 55 55 55 55 55 55 55 54 54 54 54 54 54 54 54 54 53 53 53 53 53 53 53 53 53 54 53 49 49 49 0 0 0 0 37 37 37 37 37 37 37 37 37 37 37 37 37 37 37 37 37 37 37 37 37 37 37 37 37 37 37 37 37 37 37 37 37 37 36 36 36 36 36 36 36 36 36 36 36 36 36 36 36 36 36 36 36 36 36 36 36 36 37 36 36 36 36 36 36 36 36 36 36 36 36 36 36 36 36 36 36 36 36 36 36 36 36 36 36 36 36 36 36 36 36 36 36 36 36 36 36 36 36 36 36 36 36 36 36 36 36 36 35 36 36 36 36 36 36 36 36 36 36 36 36 36 36 36 35 36
    0 0 0 0 0 0 0 0 0 0 0 0 0 0 0 0 0 0 0 0 0 0 0 0 0 0 0 0 0 0 0 0 0 0 0 0 27 27 27 34 34 34 34 34 34 34 34 34 34 34 34 34 34 34 34 34 34 34 34 34 34 34 34 34 34 34 34 34 34 34 34 34 34 34 34 34 34 34 34 34 34 34 34 34 34 34 34 34 34 34 35 35 35 35 35 35 35 35 35 35 35 35 35 35 35 35 35 35 35 35 35 35 34 34 35 35 35 35 35 35 35 35 35 35 35 35 35 35 35 35 35 35 35 35 35 35 35 35 35 35 35 35 35 35 35 35 35 35 35 35 35 35 35 35 35 35 35 35 35 35 35 35 35 35 35 35 35 35 35 35 36 36 36 36 0 0 0 0 0 0 0 0 0 0 0 0 0 0 0 0 0 0 0 0 0 0 0 0 0 0 0 0 0 0 0 0 0 0 0 0 0 0 0 66 66 66 66 66 66 66 66 67 67 67 67 67 68 68 68 0 0 68 68 68 68 68 68 68 68 68 68 68 69 69 68 66 66 66 66 0 0 0 0 0 0 0 0 36 37 37 37 37 37 37 37 37 37 37 37 37 37 37 37 37 37 37 37 37 37 37 37 37 37 37 37 37 37 37 37 37 37 37 37 37 37 37 37 37 37 37 37 37 37 37 37 37 37 37 37 37 37 37 37 37 37 37 37 37 37 37 37 37 37 37 37 37 37 37 37 37 37 37 37 37 37 37 37 37 38 38 38 38 38 38 38 38 38 38 38 38 38 38 38 38 38 38 38 38 38 38 38 38 0 0 0 0 0 0 0 0 0 0 0 0 0 0 49 49 49 49 49 50 50 50 50 51 52 52 52 52 52 50 51 51 50 50 51 43 53 44 45 46 47 48 49 50 51 51 51 51 51 51 51 51 52 50 51 52 52 47 48 49 49 50 51 53 54 55 55 56 56 56 55 55 55 55 55 55 55 55 55 55 56 56 56 56 56 56 56 56 56 55 55 55 55 55 56 56 55 55 55 55 55 55 55 55 56 56 56 55 55 55 55 55 55 55 55 55 55 55 55 55 55 55 55 55 55 55 55 54 54 54 54 54 54 54 54 53 53 53 53 53 53 53 53 53 54 53 49 49 49 0 0 0 37 37 37 37 37 37 37 37 37 37 37 37 37 37 37 37 37 37 37 37 37 37 37 37 37 37 37 37 37 37 37 37 37 37 37 36 36 36 36 36 36 36 36 36 36 36 36 36 36 36 36 37 36 36 36 36 36 36 37 36 36 36 36 36 36 36 36 36 36 36 36 36 36 36 36 36 36 36 36 36 36 36 36 36 36 36 36 36 36 36 36 36 36 36 36 36 36 36 36 36 36 36 36 36 36 36 36 36 36 35 36 36 36 36 36 36 36 36 36 36 36 36 36 36 36 35 35
    0 0 0 0 0 0 0 0 0 0 0 0 0 0 0 0 0 0 0 0 0 0 0 0 0 0 0 0 0 0 0 0 0 0 0 27 27 27 27 34 34 34 34 34 34 34 34 34 34 34 34 34 34 34 34 34 34 34 34 34 34 34 34 34 34 34 34 34 34 34 34 34 34 34 34 34 34 34 34 34 34 34 34 34 34 34 34 34 34 34 35 35 35 35 35 35 35 35 35 35 35 35 35 35 35 35 35 35 35 35 35 35 34 35 35 35 35 35 35 35 35 35 35 35 35 35 35 35 35 35 35 35 35 35 35 35 35 35 35 35 35 35 35 35 35 35 35 35 35 35 35 35 35 35 35 35 35 35 35 35 35 35 35 35 35 35 35 35 35 36 35 36 36 0 0 0 0 0 0 0 0 0 0 0 0 0 0 0 0 0 0 0 0 0 0 0 0 0 0 0 0 0 0 0 0 0 0 0 0 65 65 66 66 66 66 66 66 66 67 67 67 67 67 67 68 68 68 68 68 68 68 68 68 68 68 68 68 68 68 69 69 70 71 72 66 66 66 66 66 0 0 0 0 0 0 0 37 37 37 37 37 37 37 37 37 37 37 37 37 37 37 37 37 37 37 37 37 37 37 37 37 37 37 37 37 37 37 37 37 37 37 37 37 37 37 37 37 37 37 37 37 37 37 37 37 37 37 37 37 37 37 37 37 37 37 37 37 37 37 37 37 37 37 37 37 37 37 37 38 38 38 38 38 37 37 37 38 38 38 38 38 38 38 38 38 38 38 38 38 38 38 38 38 38 38 38 38 38 38 38 38 38 0 0 0 0 0 0 0 0 0 0 0 0 0 0 49 49 49 49 49 50 50 50 50 51 51 52 52 52 52 50 50 51 51 50 53 43 44 44 45 46 47 48 49 50 51 51 51 51 51 51 51 51 50 50 51 52 53 53 48 49 49 50 51 53 54 55 55 56 56 56 56 55 55 55 55 55 55 55 55 55 56 56 56 56 56 56 56 56 56 56 55 55 55 56 56 56 55 55 55 55 55 55 55 55 55 56 56 55 55 55 55 55 55 55 55 55 55 55 55 55 55 55 55 55 55 55 54 54 54 54 54 54 54 54 53 53 53 53 53 53 53 53 53 53 53 53 49 49 0 0 0 0 37 37 37 37 37 37 37 37 37 37 37 37 37 37 37 37 37 37 37 37 37 37 37 37 37 37 37 37 37 37 37 37 37 37 37 37 36 36 36 36 36 36 36 36 36 36 36 36 36 37 37 37 37 36 36 36 36 36 37 36 36 36 36 36 36 36 36 36 36 36 36 36 36 36 36 36 36 36 36 36 36 36 36 36 36 36 36 36 36 36 36 36 36 36 36 36 36 36 36 36 36 36 36 36 36 36 36 36 36 35 36 36 36 36 36 36 36 36 36 36 36 36 36 36 36 35 35
    0 0 0 0 0 0 0 0 0 0 0 0 0 0 0 0 0 0 0 0 0 0 0 0 0 0 0 0 0 0 0 0 27 27 27 27 27 27 27 34 34 34 34 34 34 34 34 34 34 34 34 34 34 34 34 34 34 34 34 34 34 34 34 34 34 34 34 34 34 34 34 34 34 34 34 34 34 34 34 34 34 34 34 34 34 34 34 34 34 34 35 35 35 35 35 35 35 35 35 35 35 35 35 35 35 35 35 35 35 35 35 35 34 35 35 35 35 35 35 35 35 35 35 35 35 35 35 35 35 35 35 35 35 35 35 35 35 35 35 35 35 35 35 35 35 35 35 35 35 35 35 35 35 35 35 35 35 35 36 36 36 35 35 35 35 35 35 36 36 36 36 36 0 0 0 0 0 0 0 0 0 0 0 0 0 0 0 0 0 0 0 0 0 0 0 0 0 0 0 0 0 0 0 0 0 0 0 0 65 66 66 66 66 66 66 66 66 67 67 67 67 67 68 68 68 68 68 68 68 68 68 68 68 68 68 69 69 69 69 70 70 71 72 67 67 0 0 0 0 0 0 0 0 0 37 37 36 36 37 37 37 37 37 37 37 37 37 37 37 37 37 37 37 37 37 37 37 37 37 37 37 37 37 37 37 37 37 37 37 37 37 37 37 37 37 37 37 37 37 37 37 37 37 37 37 37 37 37 37 37 37 37 37 37 37 37 37 37 37 37 37 37 37 37 37 37 37 37 38 38 38 38 38 37 38 37 38 38 38 38 38 38 38 38 38 38 38 38 38 38 38 38 38 38 38 38 38 38 38 38 38 38 0 0 0 0 0 0 0 0 0 0 0 0 0 0 49 48 49 49 49 50 50 50 50 51 52 52 52 52 52 50 51 51 51 51 51 52 44 44 45 46 47 56 57 50 51 52 51 51 51 51 50 50 50 51 52 52 53 53 48 49 50 50 51 52 54 55 55 56 56 56 55 55 55 55 55 55 55 55 55 55 56 56 56 56 56 56 56 56 56 56 55 55 55 50 56 55 55 55 55 55 55 55 55 55 55 56 55 55 55 55 55 55 55 55 55 55 55 55 55 55 55 55 55 55 55 54 54 54 54 54 54 54 54 53 53 53 53 53 53 53 53 53 53 53 53 53 49 49 0 0 0 0 37 37 37 37 37 37 37 37 37 37 37 37 37 37 37 37 37 37 37 37 37 37 37 37 37 37 37 37 37 37 37 37 37 37 37 37 36 36 36 36 36 36 36 36 36 36 36 36 36 37 37 37 37 37 36 37 36 37 37 36 36 36 36 36 36 36 36 36 36 36 36 36 36 36 36 36 36 36 36 36 36 36 36 36 36 36 36 36 36 36 36 36 36 36 36 36 36 36 36 36 36 36 36 36 36 36 36 36 36 36 36 36 36 36 36 36 36 36 36 36 36 36 36 36 36 35 35
    0 0 0 0 0 0 0 0 0 0 0 0 0 0 0 0 0 0 0 0 0 0 0 0 0 0 0 0 0 0 0 0 27 27 27 27 27 27 26 34 34 34 34 34 34 34 34 34 34 34 34 34 34 34 34 34 34 35 35 35 35 34 34 34 34 34 34 35 34 34 34 34 34 34 34 35 34 34 34 34 34 35 35 35 35 35 34 34 34 34 34 35 35 35 35 35 35 35 35 35 35 35 35 35 35 35 35 35 35 35 35 35 35 35 35 35 35 35 35 35 35 35 35 35 35 35 35 35 35 35 35 35 35 35 35 35 35 35 35 35 35 35 35 35 35 35 35 35 35 35 35 35 35 35 35 35 35 35 36 36 36 35 35 35 35 35 36 36 36 36 36 0 0 0 0 0 0 0 0 0 0 0 0 0 0 0 0 0 0 0 0 0 0 0 0 0 0 0 0 0 0 0 0 0 0 0 0 0 65 66 66 66 66 66 66 66 67 67 67 67 68 68 68 68 68 68 68 68 68 68 68 68 68 68 68 69 69 70 70 70 69 66 66 0 0 0 0 0 0 0 0 0 0 36 37 37 37 36 37 37 37 37 37 37 37 37 37 37 37 37 37 37 37 37 37 37 37 37 37 37 37 37 37 37 37 37 37 37 37 37 37 37 37 37 37 37 37 37 37 37 37 37 37 37 37 37 37 37 37 37 37 37 37 37 37 37 37 37 37 37 37 37 37 37 37 37 38 38 38 38 38 38 38 38 38 38 38 38 38 38 38 38 38 38 38 38 38 38 38 38 38 38 38 38 38 38 38 38 38 38 38 38 39 0 0 0 0 0 0 0 0 0 0 0 0 0 0 48 48 49 49 50 50 50 50 51 51 52 52 51 50 50 50 50 51 50 51 52 44 44 45 46 55 56 57 51 52 52 51 51 51 50 50 50 50 51 52 52 52 53 53 49 50 50 51 52 54 55 55 56 56 55 51 55 55 55 55 55 55 55 55 55 55 55 55 56 56 56 56 56 56 55 55 55 55 50 55 55 55 55 55 55 55 55 55 55 55 55 55 55 55 55 55 55 55 55 55 55 55 55 55 55 55 55 55 55 55 54 54 54 54 54 54 54 54 53 53 53 53 53 53 53 53 53 53 53 53 52 49 49 0 0 0 37 37 37 37 37 37 37 37 37 37 37 37 37 37 37 37 37 37 37 37 37 37 37 37 37 37 37 37 37 37 37 37 37 37 37 37 37 37 37 36 36 37 37 37 37 37 37 37 37 36 37 36 37 37 37 37 37 37 37 37 36 36 36 36 36 36 37 37 36 36 36 36 36 36 36 36 36 36 36 36 36 36 36 36 36 36 36 36 36 36 36 36 36 36 36 36 36 36 36 36 36 36 36 36 36 36 36 36 36 36 36 35 36 36 36 36 36 36 36 36 36 36 36 36 36 36 35 36
    0 0 0 0 0 0 0 0 0 0 0 0 0 0 0 0 0 0 0 0 0 0 0 0 0 0 0 0 0 0 0 0 27 27 27 27 27 27 26 34 34 34 34 34 34 34 34 34 34 34 34 34 34 34 34 35 35 35 35 35 35 35 34 34 34 35 35 35 35 34 34 34 35 35 35 35 35 34 34 34 34 35 35 35 35 35 35 34 35 35 35 35 35 35 35 35 35 35 35 35 35 35 35 35 35 35 35 35 35 35 35 35 35 35 35 35 35 35 35 35 35 35 35 35 35 35 35 35 35 35 35 35 35 35 35 35 35 35 35 35 35 35 35 35 35 35 35 35 35 36 35 35 35 35 35 35 35 36 36 36 36 36 36 36 36 36 36 36 36 36 0 0 0 0 0 0 0 0 0 0 0 0 0 0 0 0 0 0 0 0 0 0 0 0 0 0 0 0 0 0 0 0 0 0 0 0 0 65 66 66 66 66 66 66 67 67 67 67 68 68 68 68 68 68 68 68 68 68 68 68 68 68 68 69 69 69 70 70 67 66 66 66 0 0 0 0 0 0 0 0 0 0 37 37 37 37 37 37 37 37 37 37 37 37 37 37 37 37 37 37 37 37 37 37 37 37 37 37 37 37 37 37 37 37 37 37 37 37 37 37 37 37 37 37 37 37 37 37 37 37 37 37 37 37 37 37 37 38 37 38 38 38 38 38 37 37 37 37 37 37 38 38 38 38 38 38 38 38 38 38 38 38 38 38 38 38 38 38 38 38 38 38 38 38 38 38 38 38 38 38 38 38 38 38 38 38 38 38 38 38 38 38 39 0 0 0 0 0 0 0 0 0 0 0 0 0 48 48 48 49 49 50 50 50 50 51 51 52 52 50 49 50 50 51 52 52 44 44 44 44 45 54 55 56 57 51 52 52 52 52 50 49 49 50 51 52 53 53 53 53 54 54 55 55 55 52 53 54 55 55 55 55 55 55 55 55 55 55 55 55 55 55 55 55 55 55 56 56 56 56 56 55 55 55 55 51 52 53 55 55 55 55 55 55 55 55 55 55 55 55 55 55 55 55 55 55 55 55 55 55 55 55 55 55 55 55 55 54 54 54 54 54 54 54 54 53 53 53 53 53 53 53 53 53 53 53 53 49 49 49 0 0 0 37 37 37 37 37 37 37 37 37 37 37 37 37 37 37 37 37 37 37 37 37 37 37 37 37 37 37 37 37 37 37 37 37 37 37 37 37 37 37 37 37 37 37 37 37 37 37 37 37 37 37 37 37 37 37 37 37 37 36 37 37 37 37 37 37 37 37 37 36 36 36 36 36 36 36 36 36 36 36 36 36 36 36 36 36 36 36 36 36 36 36 36 36 36 36 36 36 36 36 36 36 36 36 36 36 36 36 36 36 36 36 36 36 36 36 36 36 36 36 36 36 36 36 36 36 36 35 36
    0 0 0 0 0 0 0 0 0 0 0 0 0 0 0 0 0 0 0 0 0 0 0 0 0 0 0 22 23 24 0 0 27 27 27 27 27 26 33 34 34 34 34 34 34 34 34 34 34 35 34 34 34 34 35 35 35 35 35 35 35 35 34 35 35 35 35 35 35 35 34 35 35 35 35 35 35 35 35 35 35 35 35 35 35 35 35 35 35 35 35 35 35 35 35 35 35 35 35 35 35 35 35 35 35 35 35 35 35 35 35 35 35 35 35 35 35 35 35 35 35 35 35 35 35 35 35 36 36 36 36 35 35 35 35 35 35 35 35 35 35 35 35 35 35 35 35 35 36 36 36 35 35 35 35 35 36 36 36 36 36 36 74 0 0 0 0 0 0 0 0 0 0 0 0 0 0 0 0 0 0 0 0 0 0 0 0 0 0 0 0 0 0 0 0 0 0 0 0 0 0 0 0 0 0 0 65 66 66 67 66 67 67 67 67 67 68 68 68 68 0 0 69 69 69 69 69 68 68 69 69 69 69 69 68 66 66 66 66 66 66 0 0 0 0 0 0 0 0 0 37 37 37 37 37 37 37 37 37 37 37 37 37 37 37 37 37 37 37 37 37 37 37 37 37 37 37 37 37 37 37 37 37 37 37 37 37 37 37 37 37 37 37 37 37 37 37 37 37 37 37 37 37 37 37 38 38 38 38 38 38 38 38 38 38 37 38 38 38 38 38 38 38 38 38 38 38 38 38 38 38 38 38 38 38 38 38 38 38 38 38 38 38 38 38 38 38 38 38 38 38 38 38 38 38 38 38 38 38 38 38 38 39 39 0 0 0 0 0 0 0 0 0 0 0 0 48 48 48 49 49 50 50 50 50 51 51 51 49 50 49 49 50 51 52 52 52 52 44 44 44 44 55 56 57 51 52 52 52 52 50 48 49 50 51 52 53 54 54 54 55 55 55 55 55 51 52 53 53 54 51 51 52 52 53 54 54 53 53 54 52 53 54 54 55 55 56 56 55 56 56 55 55 55 56 55 51 55 55 55 55 55 55 55 55 55 55 55 55 55 55 55 55 55 55 55 55 55 55 55 55 55 55 55 55 55 55 54 54 54 54 54 54 54 54 53 53 53 53 53 53 53 53 53 53 53 53 49 49 0 0 0 0 37 37 37 37 37 37 37 37 37 37 37 37 37 37 37 37 37 37 37 37 37 37 37 37 37 37 37 37 37 37 37 37 37 37 37 37 37 37 37 37 37 37 37 37 37 37 37 37 37 37 37 37 37 37 37 37 37 37 37 37 37 37 37 37 37 37 37 37 36 36 36 36 36 36 36 36 36 36 36 36 36 36 36 36 36 36 36 36 36 36 36 36 36 36 36 36 36 36 36 36 36 36 36 36 36 36 36 36 36 36 36 37 37 37 36 36 36 36 36 36 36 36 36 36 36 36 36 36
    0 0 0 0 0 0 0 0 0 0 0 0 0 0 0 0 0 0 0 0 0 0 0 0 0 0 0 22 23 24 0 0 27 28 29 30 31 27 27 28 35 36 37 34 34 34 34 35 35 35 34 34 34 35 35 35 36 36 36 36 36 36 34 35 35 35 35 35 35 35 35 35 36 35 35 35 35 35 35 35 35 35 35 35 35 35 35 35 35 35 35 35 35 35 35 35 35 35 35 35 35 35 35 35 35 35 35 35 35 36 36 36 36 35 35 35 35 35 35 35 35 35 35 36 36 36 36 36 36 36 36 36 35 35 35 35 36 35 35 35 35 35 35 35 36 36 36 35 36 36 36 36 36 36 36 36 36 36 36 36 36 36 74 75 0 0 0 0 0 0 0 0 0 0 0 0 0 0 0 0 0 0 0 0 0 0 0 0 0 0 0 0 0 0 0 0 0 0 0 0 0 0 63 64 65 65 66 66 67 67 67 67 0 0 0 0 68 69 69 69 69 69 69 69 69 69 69 69 69 69 69 69 65 66 66 66 66 66 66 66 0 0 0 0 0 0 0 0 37 37 37 37 37 37 37 37 37 37 37 37 37 37 37 37 37 37 37 37 37 37 37 37 37 37 37 37 37 37 37 37 37 37 37 37 37 37 37 37 37 37 37 37 37 37 37 37 37 37 37 37 37 37 37 37 37 38 38 38 38 38 38 38 38 38 38 38 38 38 38 38 38 38 38 38 38 38 38 38 38 38 38 38 38 38 38 38 38 38 38 38 38 38 38 38 38 38 38 38 38 38 38 38 38 38 38 38 38 38 38 38 38 38 39 39 0 0 0 0 0 0 0 0 0 0 0 47 48 48 48 49 49 50 50 50 50 51 51 49 49 50 51 52 50 51 52 52 52 44 44 44 44 44 55 55 57 51 52 52 52 52 51 51 49 50 50 52 53 54 46 54 55 55 55 55 56 56 52 53 53 53 53 52 52 52 53 53 54 53 53 54 52 52 53 53 54 55 55 55 55 55 55 55 55 55 55 55 55 55 55 55 55 55 55 56 55 55 55 55 55 55 55 55 55 55 55 55 55 55 55 55 55 55 55 55 55 55 55 54 54 54 54 54 54 54 54 53 53 53 53 53 53 53 53 53 53 53 53 49 49 0 0 0 0 37 37 37 37 37 37 37 38 38 38 37 37 37 37 37 37 37 37 37 37 37 37 37 37 37 37 37 37 37 37 37 37 37 37 37 37 37 37 37 37 37 37 37 37 37 37 37 37 37 37 37 37 37 37 37 37 37 37 37 37 37 37 37 37 37 37 37 37 36 36 37 36 36 37 36 36 36 36 36 36 36 36 36 36 36 36 36 36 36 36 36 36 36 36 37 36 36 36 36 36 36 37 37 37 37 37 37 37 36 37 37 37 37 37 36 36 36 36 36 36 36 36 36 36 36 36 36 36
    0 0 0 0 0 0 0 0 0 0 0 0 0 0 0 0 0 0 0 0 0 0 0 0 0 0 0 22 23 0 0 0 0 0 29 30 27 28 28 29 29 29 37 37 35 36 36 35 36 36 37 36 36 36 36 37 37 37 37 37 37 37 37 35 35 35 35 36 36 36 36 36 37 36 37 35 35 35 35 35 35 36 35 35 35 35 35 35 36 36 36 36 36 37 35 38 35 35 35 35 35 35 35 35 35 35 35 35 35 36 36 36 36 35 35 35 35 35 35 36 36 35 36 36 37 36 37 36 36 36 36 36 36 53 53 53 36 36 35 35 35 35 35 35 36 36 36 36 36 36 36 36 36 36 36 36 36 36 36 36 36 36 37 76 50 0 0 0 0 0 0 0 0 0 0 0 0 0 0 0 0 0 0 0 0 0 0 0 0 0 0 0 0 0 0 0 0 0 0 0 0 62 63 64 65 66 66 67 67 67 68 0 0 0 0 69 69 69 69 69 69 69 69 69 69 69 69 69 69 70 71 72 66 66 66 66 66 66 66 66 0 0 0 0 0 0 0 37 37 37 37 37 37 37 37 37 37 37 37 37 37 37 37 37 37 37 37 37 37 37 37 37 37 37 37 37 37 37 37 37 37 37 37 37 37 37 37 37 37 37 37 37 37 37 37 37 37 38 38 37 37 37 37 37 38 38 38 38 38 38 38 38 38 38 38 38 38 38 38 38 38 38 38 38 38 38 38 38 38 38 38 38 38 38 38 38 38 38 38 38 38 38 38 38 38 38 38 38 38 38 38 38 38 38 38 38 38 39 39 39 38 38 39 39 0 0 0 0 0 0 0 0 0 0 0 0 48 48 48 49 49 50 50 50 50 51 48 49 50 51 51 52 52 52 52 52 44 44 44 44 44 44 45 54 50 51 52 52 52 53 51 51 51 50 42 42 49 47 46 45 55 55 55 55 56 56 52 53 53 54 53 53 52 52 53 53 54 53 53 53 52 52 53 52 53 55 55 55 55 55 55 55 55 55 55 55 55 55 55 55 55 55 55 56 55 55 55 55 55 55 55 55 55 55 55 55 55 55 55 55 55 55 54 54 54 54 54 54 54 54 54 54 54 54 54 53 53 53 53 53 53 53 53 53 53 53 52 49 49 0 0 0 0 37 37 37 38 38 38 0 0 0 0 0 0 0 0 0 37 37 37 37 37 37 37 37 37 37 37 0 0 42 42 42 0 0 38 38 38 37 37 37 37 37 37 0 0 0 0 0 37 37 37 37 37 37 37 38 38 37 37 37 37 37 37 37 37 37 37 37 0 0 0 0 0 36 37 37 36 36 36 36 36 36 37 36 36 36 36 36 36 36 36 37 37 37 37 37 37 37 37 37 37 37 37 37 37 37 37 37 37 37 37 37 37 37 37 36 36 36 36 36 36 36 36 36 36 36 36 36 36
    0 0 0 0 0 0 0 0 0 0 0 0 0 0 0 0 0 0 0 0 0 0 0 0 0 0 0 22 23 23 0 0 22 23 29 30 29 28 29 29 29 36 37 37 37 37 37 37 36 37 37 37 37 37 37 38 38 38 38 38 37 38 38 37 37 37 36 36 36 37 37 37 38 38 38 38 35 35 35 35 36 37 38 38 38 35 37 37 37 38 38 38 38 38 38 38 35 35 36 36 35 36 36 35 35 35 35 35 36 37 37 37 37 36 36 36 36 30 30 31 37 37 37 37 37 37 37 37 37 37 37 52 52 53 52 53 37 37 37 36 35 35 36 36 36 36 36 37 36 36 37 37 37 37 37 67 67 67 67 42 36 36 76 76 75 0 0 0 0 0 0 0 0 0 0 0 0 0 0 0 0 0 0 0 0 0 0 0 0 0 0 0 0 0 0 0 0 0 0 0 0 64 65 66 66 67 67 67 67 68 0 0 0 0 69 69 69 69 69 69 69 69 69 69 69 69 69 70 70 71 72 67 67 67 66 66 0 66 66 66 0 0 0 0 0 37 37 37 37 37 37 37 37 37 37 37 37 37 37 37 37 37 37 37 37 37 37 37 37 37 37 37 37 37 37 37 37 37 37 37 37 37 37 37 37 37 37 37 37 37 37 37 37 37 37 37 38 38 38 38 38 38 38 38 38 38 38 38 38 38 38 38 38 38 38 38 38 38 38 38 38 38 38 38 38 38 38 38 38 38 38 38 38 38 38 38 38 38 38 38 38 38 38 38 38 38 38 38 38 38 39 39 38 38 38 38 39 39 39 39 39 39 39 39 39 0 0 0 0 0 0 0 0 0 0 0 48 48 48 49 49 50 50 50 51 51 48 49 50 51 51 52 52 52 53 53 44 44 44 44 45 44 45 54 50 51 51 52 52 51 50 51 51 50 50 42 49 47 45 45 55 55 55 55 56 56 52 53 53 54 54 54 52 52 53 53 53 53 53 54 54 52 54 54 53 53 53 55 55 55 55 55 55 55 55 55 55 55 55 55 56 56 55 55 55 55 55 55 55 55 55 55 55 55 55 55 55 55 55 55 55 55 54 54 54 54 54 54 54 54 54 54 54 54 53 53 53 53 53 53 53 53 53 52 52 52 52 49 49 0 0 0 0 0 0 0 43 44 0 0 0 0 0 0 0 0 0 0 0 37 37 38 44 44 0 0 37 37 38 43 43 42 42 42 42 42 42 43 0 0 0 0 36 37 0 0 0 0 0 0 0 0 37 37 37 37 37 38 39 39 39 39 40 40 0 0 0 37 0 0 0 0 0 0 0 0 37 37 37 37 37 37 37 37 35 36 38 39 39 37 37 37 37 37 37 37 37 37 37 37 37 37 37 37 37 37 37 38 38 38 37 37 37 37 37 37 37 37 36 36 36 36 36 37 37 37 37 37 37 37 36
    0 0 0 0 0 0 0 0 0 0 0 0 0 0 0 0 0 0 0 0 0 0 0 0 0 0 0 0 0 17 20 21 22 23 29 24 25 28 28 28 28 36 37 38 37 37 37 37 37 38 38 38 38 38 38 38 38 38 38 38 38 38 38 38 38 38 38 37 37 38 38 38 38 38 38 38 38 37 37 37 37 38 38 38 38 38 37 37 38 38 39 39 39 39 39 39 39 38 38 38 37 38 38 38 39 35 35 36 37 37 38 38 38 38 37 36 37 37 37 37 38 38 38 38 38 38 38 38 38 38 39 38 38 39 39 39 39 39 89 89 89 90 38 39 39 39 39 39 38 39 37 37 38 38 39 39 39 40 41 41 40 40 77 77 51 51 0 0 0 0 0 0 0 0 0 0 0 0 0 0 0 0 0 0 0 0 0 0 0 0 0 0 0 0 0 0 67 67 67 67 67 66 66 67 67 67 67 67 68 68 69 69 69 69 69 69 69 69 69 69 69 69 69 69 70 70 70 71 71 72 67 67 67 67 67 0 0 0 0 0 0 0 0 37 37 37 37 37 37 37 38 37 37 37 37 37 37 37 37 37 37 37 37 37 38 38 37 37 37 37 37 37 37 37 37 37 37 37 37 37 37 37 37 37 37 37 37 37 37 37 38 37 37 38 37 38 38 38 38 38 38 38 38 38 38 38 38 38 38 38 38 38 38 38 38 38 38 38 38 38 38 38 38 38 38 38 38 38 38 38 38 38 38 38 38 38 38 38 38 38 38 38 38 38 39 38 38 39 39 39 39 39 39 39 39 39 39 39 39 39 39 39 39 39 39 0 0 0 0 0 0 0 0 0 0 0 0 48 48 48 49 49 50 51 51 51 51 52 50 51 51 52 52 52 52 52 51 44 53 44 45 45 54 54 49 50 51 51 51 51 51 51 52 53 50 49 49 50 49 55 55 55 55 55 55 51 52 53 53 54 54 54 54 52 53 53 54 55 53 54 54 53 54 54 54 53 53 55 54 55 55 55 55 55 55 55 55 55 55 56 56 56 55 55 55 55 55 55 55 55 55 55 55 55 55 55 55 55 55 55 55 55 54 54 54 54 54 54 54 54 54 54 54 54 53 53 53 53 53 53 53 53 53 52 52 52 52 49 49 0 0 0 42 43 43 43 43 44 44 45 45 45 45 45 0 0 46 0 0 0 45 45 45 46 44 45 45 44 44 44 44 42 42 42 42 42 42 42 42 0 0 0 36 37 0 0 0 0 0 41 42 42 42 42 0 37 38 38 39 40 40 41 41 41 40 41 0 37 0 0 0 0 41 41 41 40 40 40 40 40 40 40 40 40 40 39 39 40 40 40 39 39 37 37 37 38 38 38 38 37 37 37 37 37 37 38 38 39 39 40 40 40 40 37 37 37 37 37 36 36 36 37 37 37 37 37 37 37 37 37 37
    0 0 0 0 0 0 0 0 0 0 0 0 0 0 0 0 0 0 0 0 0 0 0 0 0 0 0 0 0 17 18 21 22 22 23 24 25 28 28 27 28 36 37 38 38 38 38 38 38 38 39 39 39 39 39 38 38 38 38 38 38 38 38 38 38 38 38 38 38 38 38 38 38 39 39 39 39 38 38 38 38 38 38 38 38 38 38 38 39 39 39 39 39 39 39 39 39 39 39 39 38 38 38 38 39 39 39 39 39 39 39 39 39 38 38 37 37 37 38 38 38 38 38 38 38 38 38 39 39 39 39 39 39 39 39 39 39 39 39 39 39 39 39 39 39 39 39 39 39 39 39 39 39 39 40 40 40 40 40 41 40 40 40 77 51 51 51 0 0 0 0 0 0 0 0 0 0 0 0 0 0 0 0 0 0 0 0 0 69 69 69 67 67 67 67 67 67 67 67 67 67 67 67 67 67 68 68 68 69 69 69 69 69 69 69 69 69 69 69 69 69 70 70 71 71 71 72 68 68 67 67 67 67 67 0 0 0 0 0 0 0 0 38 39 43 40 39 39 39 38 38 38 37 37 37 37 37 37 37 37 37 38 38 38 38 38 38 37 37 37 37 37 37 37 37 37 37 37 37 37 37 37 37 37 37 37 38 38 38 38 38 38 38 38 38 38 38 38 38 38 38 38 38 38 38 38 38 38 38 38 38 38 38 38 38 38 38 38 38 38 38 38 38 38 38 38 38 38 38 38 38 38 38 38 38 38 38 38 38 38 38 39 39 39 39 39 39 39 39 39 39 39 39 39 39 39 39 39 39 39 39 39 39 39 39 40 0 0 0 0 0 0 0 0 0 0 0 48 48 48 49 49 50 51 51 51 51 52 52 50 51 52 52 52 52 52 51 52 53 53 44 54 54 54 55 50 51 51 51 51 51 51 52 52 49 49 49 49 50 46 46 55 55 55 55 51 53 53 53 54 54 54 54 54 53 53 54 55 53 54 54 53 54 54 53 53 53 53 53 54 54 55 55 55 55 55 55 55 55 55 55 56 55 55 55 55 55 55 55 55 55 55 55 55 55 55 55 55 55 55 55 55 54 54 54 54 54 54 54 54 54 54 54 54 53 53 53 53 53 53 53 53 52 52 52 52 52 49 49 0 0 0 0 43 43 43 43 44 44 45 45 45 45 45 45 46 46 46 46 46 46 47 47 47 47 47 46 53 53 45 45 45 42 42 42 42 42 42 42 0 0 0 36 37 0 0 42 42 41 41 41 42 42 42 42 42 41 41 41 41 41 41 41 41 41 41 41 41 41 41 41 41 41 41 41 41 41 41 40 40 40 40 41 40 40 40 40 40 40 40 40 39 39 40 40 40 40 41 40 38 38 38 38 37 38 38 39 40 40 40 40 40 40 0 38 39 38 38 37 37 37 37 37 37 37 37 37 37 37 37 38
    0 0 0 0 0 0 0 0 0 0 0 0 0 0 0 0 0 0 0 0 0 0 0 0 0 0 0 0 0 17 18 21 22 23 23 24 25 27 28 27 28 36 37 38 38 38 38 38 38 39 39 40 40 40 40 39 39 39 39 39 39 39 39 38 38 38 38 38 38 38 38 39 39 39 39 39 39 39 39 39 72 73 39 39 39 39 39 39 39 39 39 39 39 39 39 39 39 39 39 39 38 38 38 39 39 39 39 39 39 39 39 39 39 39 39 39 39 39 39 38 38 38 38 38 38 38 39 39 40 40 40 40 39 39 39 39 39 39 39 39 39 39 40 40 39 39 39 39 39 39 40 40 40 40 40 40 40 40 40 41 41 40 76 56 56 56 57 57 0 0 0 0 0 0 0 0 0 0 0 74 75 76 63 64 66 79 80 67 68 68 67 67 67 67 67 67 67 67 67 67 67 67 67 68 69 69 69 69 69 69 69 69 69 69 69 69 69 69 69 70 70 70 71 71 72 67 67 67 67 67 67 67 67 67 0 0 0 0 0 41 41 42 42 42 42 40 40 40 40 40 40 40 38 39 37 37 37 37 37 37 38 38 39 39 39 39 39 39 38 38 38 38 38 38 38 38 38 38 38 38 37 37 37 38 38 38 38 38 38 38 39 38 38 38 38 38 38 38 38 38 38 39 39 39 39 39 39 38 38 38 38 38 39 39 39 39 39 38 39 39 38 39 39 39 38 39 38 38 38 38 38 38 38 38 39 38 38 38 38 38 39 39 39 39 39 39 39 39 39 39 39 39 39 39 39 39 39 39 39 39 39 39 39 39 39 40 0 0 0 0 0 0 0 0 0 0 0 0 48 49 49 49 50 50 51 51 51 52 52 52 51 52 52 52 52 52 52 52 53 53 41 54 54 54 55 50 50 51 51 51 51 51 51 52 46 47 47 48 49 50 50 48 49 50 51 52 53 54 54 54 54 54 54 52 55 55 55 53 54 54 55 55 54 54 53 53 53 53 53 54 54 55 55 55 55 55 55 55 55 55 55 55 55 55 55 55 55 55 55 55 55 55 55 55 55 55 55 55 55 55 55 55 54 54 54 54 54 54 54 54 54 54 54 54 53 53 53 53 53 53 53 53 52 52 52 52 52 49 49 49 0 43 44 44 44 44 44 44 45 45 45 45 45 45 46 46 46 46 46 46 47 47 47 48 48 48 49 49 49 48 46 47 46 47 0 0 0 0 42 42 43 42 42 42 42 42 0 42 41 41 42 42 42 42 42 42 42 42 42 42 42 42 42 42 42 42 42 42 42 41 41 41 41 41 41 41 41 41 41 41 41 41 41 40 41 40 40 40 41 40 40 40 40 40 41 41 41 41 40 40 40 40 40 41 41 42 42 40 40 40 40 40 40 40 40 40 40 39 37 37 37 37 37 37 37 37 37 37 38 38 38
    0 0 0 0 0 0 0 0 0 0 0 0 0 0 0 0 0 0 0 0 0 0 0 0 0 0 0 0 0 17 18 26 27 28 28 24 25 26 27 30 35 35 36 38 39 39 40 40 40 40 40 41 40 40 41 0 39 40 40 40 40 40 40 40 40 39 39 38 38 39 39 39 39 39 39 39 39 39 39 39 71 73 39 39 39 39 39 39 40 39 39 39 39 39 39 39 39 39 39 39 39 39 39 39 39 39 39 39 39 39 39 39 39 39 39 40 40 40 40 40 40 39 39 39 40 40 40 40 40 40 40 40 40 40 39 39 39 39 39 39 40 40 40 40 40 39 39 39 40 40 40 40 40 40 40 40 40 40 41 41 41 42 75 75 56 56 57 57 58 58 53 53 84 85 0 0 0 0 0 0 0 0 0 0 0 0 0 0 68 68 67 67 67 67 67 67 67 67 67 67 67 68 69 69 69 69 69 69 69 69 69 69 69 69 69 69 69 69 69 69 69 69 66 67 67 67 67 67 67 0 0 0 0 0 0 0 0 42 42 42 42 42 42 42 42 40 40 40 40 41 41 42 42 43 40 40 40 40 40 39 39 39 39 39 39 39 39 39 40 39 39 38 38 38 39 39 39 39 39 39 38 38 39 40 40 40 39 39 39 39 39 39 39 39 39 39 39 39 39 39 39 39 39 39 39 40 40 39 39 39 39 39 39 39 39 40 40 40 39 40 40 40 41 41 41 39 39 39 39 39 39 39 39 39 39 39 39 39 40 39 39 39 39 39 39 39 39 39 39 39 39 39 39 39 39 39 39 39 39 39 39 39 39 39 39 40 41 41 0 0 0 0 0 0 0 0 0 0 48 49 49 49 50 50 51 51 51 52 52 52 51 50 50 51 52 52 52 52 52 41 41 42 54 55 55 49 50 51 51 51 51 51 52 52 51 48 48 49 49 50 50 48 49 50 51 52 53 54 53 54 54 54 54 51 54 55 54 54 54 54 54 54 54 53 53 53 53 53 53 54 54 55 55 55 55 55 55 55 55 56 55 55 55 55 55 55 55 55 55 55 55 55 55 55 55 55 55 55 55 55 55 55 54 54 54 54 54 54 54 54 54 54 54 54 53 53 53 53 53 53 53 52 52 52 52 52 50 49 49 0 0 43 44 44 44 44 45 45 45 45 45 46 46 46 46 46 46 46 47 47 47 47 48 48 48 48 49 49 49 49 48 47 47 47 47 47 0 0 42 42 43 43 42 42 42 43 43 43 42 43 42 42 42 43 43 43 43 43 43 42 43 42 42 42 42 42 42 42 42 42 41 41 41 41 41 41 41 41 41 41 41 41 41 41 41 41 41 41 41 40 40 41 41 41 41 41 41 41 41 43 39 40 40 41 41 41 41 40 40 40 40 40 40 40 40 40 40 40 40 40 40 39 39 37 37 38 39 39 40 41 41
    0 0 0 0 0 0 0 0 0 0 0 0 0 0 0 0 0 0 0 0 0 0 0 0 0 0 0 0 0 17 18 26 27 28 28 28 25 26 27 0 35 35 36 38 39 40 40 40 41 41 40 41 0 0 41 0 40 41 41 41 41 41 40 40 40 40 41 39 39 39 39 39 39 40 39 39 39 39 39 40 40 40 40 40 40 40 40 40 40 40 39 39 39 39 39 39 40 39 39 40 40 40 40 40 38 39 39 40 40 40 40 40 40 40 40 40 40 40 41 41 41 37 38 40 40 41 41 41 42 43 45 40 40 41 39 39 39 39 39 40 40 40 40 40 40 40 39 40 40 40 40 40 40 40 40 41 41 41 41 41 42 74 75 75 51 50 51 57 57 58 60 54 84 85 85 86 91 0 0 0 0 0 0 0 0 0 0 0 0 68 68 67 67 67 67 67 67 67 67 68 69 69 70 70 70 70 70 70 70 70 70 69 69 69 69 69 69 69 69 69 68 68 67 67 67 67 67 67 0 0 0 0 0 0 0 0 42 42 42 42 42 42 42 42 42 42 41 41 41 41 42 42 43 43 43 40 40 40 41 43 42 42 41 40 40 40 40 40 40 41 42 41 41 41 40 40 40 39 39 40 40 39 40 40 40 40 40 39 39 39 39 39 39 39 39 39 39 40 40 40 40 40 40 40 40 40 40 40 40 40 40 39 39 40 40 40 40 40 40 40 41 41 41 41 41 41 40 40 40 40 40 40 40 40 40 40 40 40 41 41 39 39 43 39 45 45 39 36 36 36 41 42 41 42 42 39 39 39 39 39 39 39 39 39 39 40 41 41 49 0 0 0 0 0 0 0 0 0 0 49 49 49 49 50 51 51 51 52 52 49 50 50 50 51 51 52 52 52 52 41 41 42 54 55 56 57 50 51 51 51 51 52 52 52 52 52 49 49 50 50 51 48 49 49 50 52 53 53 53 53 54 54 54 51 54 55 53 54 54 54 54 54 54 51 52 53 53 53 53 54 54 55 55 55 55 55 55 55 55 55 55 55 55 55 55 55 55 55 55 55 55 55 55 55 55 55 55 55 55 55 55 55 55 55 54 54 54 54 54 54 54 54 54 53 53 53 53 53 53 53 53 52 52 52 52 52 50 50 0 0 43 44 44 44 44 45 45 45 45 46 46 46 46 46 46 46 47 47 47 47 51 48 48 48 48 49 49 49 49 49 49 48 48 48 47 48 48 48 48 42 43 43 43 43 44 44 44 45 46 43 43 43 43 43 43 43 43 43 43 43 43 43 42 42 42 42 42 42 42 42 43 43 43 42 41 42 42 42 42 42 42 42 42 42 43 41 41 41 41 40 41 41 40 41 41 41 41 42 43 43 44 44 41 41 41 41 41 41 40 40 40 40 41 41 41 41 41 41 41 41 41 42 42 42 38 38 39 40 40 41 42
    0 0 0 0 0 0 0 0 0 0 0 0 0 0 0 0 0 0 0 0 0 0 0 0 0 0 21 22 22 22 23 26 27 28 28 29 29 30 31 0 0 35 35 36 39 40 40 40 41 42 42 43 43 43 42 42 43 42 42 42 41 41 41 40 41 41 41 40 39 39 39 39 40 40 40 40 40 40 40 40 40 40 41 40 40 40 40 40 41 41 41 41 41 40 40 40 40 40 40 40 40 41 41 41 41 42 40 40 41 41 40 40 40 40 40 40 40 41 41 42 42 42 42 42 42 42 42 42 43 43 43 41 41 41 41 40 40 40 40 40 40 40 40 40 40 40 40 40 40 41 41 41 41 42 43 43 44 48 48 50 72 74 74 75 53 54 56 57 57 58 59 83 84 85 85 0 0 0 0 0 0 0 0 0 0 0 0 0 0 68 68 67 67 67 67 67 68 68 69 70 70 70 70 70 70 70 70 70 70 70 70 70 70 70 70 70 70 69 69 69 68 67 67 67 67 67 67 67 0 0 0 0 0 0 42 43 43 43 43 43 43 43 42 42 42 43 43 42 42 42 42 42 43 43 43 43 39 40 41 43 42 42 42 40 40 40 41 41 41 42 43 43 43 42 42 41 41 41 41 40 40 40 40 40 41 41 41 40 39 40 39 39 39 40 40 40 40 40 40 40 40 41 41 40 40 40 40 40 40 40 40 40 40 40 40 41 41 41 41 41 41 41 41 41 41 41 40 40 40 40 41 41 41 41 41 41 41 41 41 42 42 43 42 43 45 42 42 42 42 42 42 42 42 42 42 42 42 41 41 42 42 42 40 40 40 40 40 41 42 0 0 0 0 0 0 0 0 49 49 49 49 49 49 50 50 51 51 52 52 52 51 49 50 51 51 51 52 52 52 41 41 42 43 55 55 49 50 50 51 51 51 51 51 51 51 50 50 50 50 51 52 48 48 49 55 55 53 53 53 53 54 54 50 51 51 52 53 54 54 54 54 54 54 51 52 52 52 53 53 54 54 54 55 55 55 55 55 55 55 55 55 55 55 55 55 55 55 55 55 55 55 55 55 55 55 55 54 55 55 55 56 54 55 55 54 54 54 54 54 54 54 54 54 54 53 53 53 53 53 53 53 52 52 52 52 51 51 0 0 0 43 44 44 44 45 45 45 45 45 46 46 46 46 46 46 47 47 48 48 48 49 49 49 49 49 49 49 49 49 49 49 49 50 49 48 48 48 48 49 48 48 43 43 44 44 44 44 45 45 44 44 43 43 43 43 43 43 43 43 43 43 43 42 42 42 42 43 43 43 43 44 44 44 45 45 45 45 45 46 45 44 44 43 44 44 45 41 41 41 41 41 41 44 40 41 41 41 42 43 43 44 44 44 41 41 41 42 41 41 41 41 41 41 41 42 41 42 43 46 47 46 46 45 36 37 44 45 45 45 45 45
    0 0 0 0 0 0 0 0 0 0 0 0 0 0 0 0 0 0 0 0 0 0 17 18 19 20 21 21 22 22 24 26 27 28 28 29 29 30 32 0 0 0 36 38 39 40 40 41 41 42 43 43 43 43 43 43 43 43 43 42 42 41 41 41 41 41 42 42 42 42 42 41 41 39 40 40 41 41 41 41 42 42 42 43 43 42 42 40 41 42 42 42 42 42 41 41 41 41 41 41 42 42 42 42 42 42 41 41 41 41 42 41 40 40 40 40 40 41 41 42 42 42 42 42 42 42 42 42 43 43 43 44 43 43 43 43 43 41 41 41 41 41 41 40 40 41 42 43 43 43 43 43 42 42 43 44 44 45 47 48 49 50 51 51 52 53 54 58 59 58 59 59 60 0 0 0 0 0 0 0 0 0 0 0 0 0 0 0 0 68 68 67 64 64 65 70 70 70 70 70 70 70 70 70 70 70 70 70 70 70 70 70 70 70 70 70 70 69 69 67 67 67 67 67 67 67 67 67 0 0 0 0 43 43 43 43 43 43 43 43 43 43 43 43 43 43 43 43 43 43 43 43 43 43 43 43 43 43 43 43 43 43 43 42 42 41 42 42 43 43 43 43 43 43 43 43 43 43 43 43 43 42 41 41 41 41 41 41 41 41 46 46 46 44 44 43 42 42 41 41 41 41 41 40 40 41 41 41 41 41 41 41 41 40 40 41 41 41 41 41 41 41 41 41 41 41 41 41 41 41 42 42 41 41 41 41 41 41 42 42 42 42 42 42 42 42 42 42 42 42 42 42 42 42 42 42 42 42 42 43 43 43 43 43 40 40 40 41 42 43 44 45 49 50 50 51 0 49 49 49 49 49 49 49 50 50 51 51 51 51 51 49 50 50 50 51 51 51 52 53 41 42 43 45 47 49 50 50 50 51 51 50 51 51 51 50 50 50 50 51 52 47 48 49 55 55 52 53 53 53 54 54 54 51 52 52 53 54 54 54 54 54 55 51 52 52 52 53 54 55 55 54 55 55 55 55 55 55 55 55 55 55 55 55 55 55 55 55 55 55 55 55 55 55 55 55 54 55 55 55 56 54 54 54 54 54 54 54 54 54 54 53 53 53 53 53 53 53 53 53 53 52 52 52 52 50 51 0 0 43 44 44 44 45 45 45 45 45 46 46 46 46 46 46 47 47 48 48 49 49 49 49 49 49 49 49 49 49 49 49 49 50 50 50 50 49 50 49 49 49 49 49 49 44 44 44 44 45 0 0 0 0 43 43 43 43 43 43 43 44 44 45 45 45 42 43 43 44 44 44 44 45 45 45 45 45 45 46 46 45 46 46 46 46 46 46 45 45 45 45 45 45 45 41 41 42 41 42 43 44 44 44 44 45 45 41 42 44 46 42 41 41 41 42 42 43 44 45 46 46 46 46 46 46 46 46 45 46 45 45 45
    0 0 0 0 0 0 0 0 0 0 0 0 0 0 0 0 0 0 0 0 0 0 17 18 19 20 21 22 22 23 25 26 27 28 29 30 31 32 33 34 35 36 37 38 39 40 41 42 42 43 43 43 43 43 43 43 43 43 43 42 42 42 41 41 41 42 42 42 43 43 43 43 42 42 42 41 42 42 42 42 42 42 43 43 43 44 43 43 43 42 43 43 43 42 41 41 41 41 41 41 42 42 42 42 42 42 42 41 42 42 42 42 42 42 42 40 41 42 42 42 42 42 42 42 43 43 43 43 43 43 43 44 43 43 43 43 43 43 43 44 44 44 40 40 41 42 42 43 43 43 43 43 43 43 43 44 45 45 47 48 49 50 51 52 52 53 54 85 59 60 61 59 0 0 0 0 0 0 0 0 0 0 0 0 0 0 0 0 68 68 68 68 0 0 70 70 70 70 70 70 70 70 70 70 70 70 70 70 70 70 70 70 70 71 69 70 70 68 68 68 68 67 67 67 67 67 67 67 0 0 43 43 43 43 43 43 43 43 43 43 43 43 43 43 43 43 43 43 43 43 43 43 43 43 43 43 43 43 43 43 43 43 43 43 43 43 43 43 43 43 44 44 44 44 44 44 44 44 43 44 44 44 44 43 43 44 43 44 44 44 44 44 44 43 44 44 43 43 43 42 42 42 42 41 41 41 41 41 41 42 43 42 42 42 43 43 42 42 42 41 41 41 41 42 42 42 42 42 42 41 42 42 42 42 42 42 41 42 42 42 42 42 42 42 42 42 42 42 42 42 43 43 43 43 42 42 42 42 43 43 43 42 43 43 41 42 43 43 43 43 44 45 48 49 49 0 0 49 49 49 49 49 49 49 49 50 50 50 50 51 50 49 50 49 50 50 51 51 52 53 41 42 43 46 47 49 49 49 49 49 50 50 51 51 51 50 50 50 50 51 47 47 48 49 50 55 52 53 53 53 53 53 53 52 52 53 53 54 54 54 54 54 54 51 52 52 52 53 54 55 55 55 55 55 55 55 55 55 55 55 55 55 55 55 55 55 55 55 55 55 55 55 55 55 52 53 54 55 55 55 54 54 54 54 54 54 54 54 54 54 54 53 53 53 53 53 53 53 53 53 52 52 52 52 52 50 51 0 0 44 44 44 45 45 45 45 45 46 46 46 46 46 46 47 47 47 48 49 49 49 49 49 49 50 50 50 50 50 50 50 50 50 50 51 51 51 51 51 51 51 51 51 50 50 50 50 49 50 46 46 0 0 43 43 44 44 43 43 44 44 45 45 45 46 45 45 45 45 45 45 45 45 45 45 45 45 46 46 46 46 46 46 46 46 46 46 46 45 45 45 46 45 45 45 44 44 44 44 44 44 45 45 45 45 45 45 46 45 45 46 42 42 42 42 43 43 44 45 46 46 46 46 46 46 46 46 46 46 45 46 46
    0 0 0 0 0 0 0 0 0 0 0 0 0 0 0 0 0 0 0 0 0 0 0 0 0 20 21 21 23 24 25 26 27 28 29 30 31 32 33 34 0 0 37 38 39 40 41 42 43 44 44 44 43 43 43 43 43 43 44 43 43 43 42 42 42 42 43 43 44 43 43 43 42 42 42 42 43 43 43 43 42 42 43 43 43 44 43 43 43 43 43 43 43 43 42 41 41 41 41 42 43 42 42 43 43 42 42 42 42 42 42 43 43 43 43 44 40 41 42 42 42 42 43 43 43 43 43 43 43 43 44 44 43 43 43 43 43 43 43 44 44 44 44 44 43 43 43 43 44 44 44 43 43 43 43 44 45 46 47 48 49 50 51 52 53 84 84 0 0 0 0 0 0 0 0 0 0 0 0 0 0 0 0 0 0 0 68 68 68 68 68 69 69 70 70 70 70 70 70 70 70 70 70 70 70 70 70 70 70 70 70 71 66 67 67 68 68 68 68 68 68 0 0 0 0 0 0 0 0 44 43 43 43 43 43 44 44 44 43 43 43 43 43 43 43 43 43 43 43 43 43 43 43 43 43 43 43 43 43 43 43 43 43 43 43 43 44 44 44 44 44 44 44 44 44 44 44 44 44 44 44 44 44 44 44 44 44 44 44 44 44 44 44 44 44 44 44 44 44 43 42 43 42 42 43 43 43 43 43 43 43 43 43 43 43 43 43 44 44 44 44 44 42 42 43 43 43 43 44 42 42 42 42 42 42 42 43 43 43 43 43 43 43 42 42 42 42 42 42 43 43 43 43 43 43 43 43 43 43 43 43 43 43 43 43 43 43 43 43 43 44 45 45 49 49 0 0 0 49 49 49 49 48 49 49 50 50 49 50 50 50 50 50 49 49 50 51 52 52 53 53 42 43 46 46 47 48 47 47 48 48 49 50 51 51 50 50 50 50 50 47 47 48 49 50 51 52 52 53 53 53 53 53 52 53 53 53 54 54 54 54 54 54 52 53 52 52 53 54 55 55 55 55 55 55 55 55 55 55 55 55 55 55 55 54 55 55 55 55 55 55 55 55 55 55 53 54 55 55 55 54 54 54 54 54 54 54 54 54 54 54 53 53 53 53 53 53 53 53 53 52 52 52 52 51 50 51 0 0 0 45 45 45 46 46 46 46 46 46 46 46 46 47 47 47 48 50 50 50 50 49 50 49 50 50 50 50 51 51 51 51 50 50 51 51 51 51 51 51 51 51 51 51 50 50 50 49 49 50 52 46 46 44 44 44 45 46 46 46 46 46 46 46 46 46 46 46 46 46 45 45 45 45 45 45 45 46 46 46 46 46 46 46 46 46 46 46 45 45 45 46 45 45 45 44 45 45 45 45 45 45 45 45 46 46 46 46 46 46 46 46 46 45 43 44 44 45 46 46 46 46 46 46 46 46 46 46 46 45 46 46
    0 0 0 0 0 0 0 0 0 0 0 0 0 0 0 0 0 0 0 0 0 0 0 0 0 0 0 22 0 0 0 26 27 28 29 30 31 0 0 0 0 0 0 0 0 0 0 0 0 44 45 45 46 43 43 43 43 44 44 44 44 44 43 43 43 43 43 44 44 45 43 43 42 43 43 43 43 43 43 42 43 43 43 45 44 44 44 44 44 44 44 44 43 43 43 42 43 43 41 40 40 41 43 44 44 45 45 45 45 42 43 43 44 44 44 44 39 40 42 43 43 43 43 43 44 43 43 43 43 44 44 44 46 43 43 43 43 43 44 44 44 44 45 44 44 44 44 44 44 44 44 44 43 43 44 44 45 53 54 55 56 58 60 61 83 83 96 96 96 96 65 66 0 0 0 0 0 0 0 0 0 0 0 0 68 68 68 68 68 68 69 69 70 70 70 70 70 70 70 70 70 70 70 70 70 70 70 70 70 71 71 66 67 67 68 68 68 68 68 68 0 0 0 0 0 0 0 44 44 44 44 44 44 44 44 44 44 44 44 44 44 43 43 43 44 44 44 43 43 43 43 44 44 44 44 44 44 44 44 44 44 44 45 44 44 44 44 44 44 44 44 44 44 44 44 44 44 44 44 44 44 44 44 44 44 44 44 44 44 44 44 44 44 44 44 44 44 44 44 44 43 44 44 43 44 44 44 44 44 44 43 43 43 43 44 44 44 44 44 44 44 44 44 44 44 44 44 44 44 44 43 42 42 43 43 43 43 43 44 43 43 43 44 44 44 43 43 43 43 43 44 44 44 44 44 44 44 44 44 44 43 43 43 43 43 43 44 44 43 43 44 44 45 46 47 48 0 0 0 48 49 49 48 49 49 50 50 49 50 51 51 50 51 48 49 50 51 52 52 52 52 52 47 45 46 46 47 46 47 47 48 49 50 51 51 50 50 49 50 50 52 48 48 49 50 51 51 52 53 53 53 53 53 52 53 53 54 54 54 54 54 54 54 53 53 54 52 53 55 55 55 55 55 55 55 55 55 55 55 55 55 55 55 55 54 55 55 55 55 55 55 55 55 55 55 55 54 54 54 54 54 54 54 54 54 54 54 54 54 54 54 53 53 53 53 53 53 53 53 53 53 53 53 53 53 51 51 0 0 0 0 48 48 49 0 0 46 46 46 46 46 46 47 47 47 48 50 50 50 50 50 50 50 50 50 51 51 51 51 51 51 51 51 51 51 51 52 52 52 52 52 52 52 51 51 51 51 51 51 52 52 52 52 0 47 48 48 46 46 46 46 46 46 46 46 46 46 46 46 46 46 46 46 46 46 46 46 46 46 46 46 46 46 46 46 46 46 46 46 46 46 46 46 46 46 46 46 46 46 46 46 46 46 47 46 47 47 47 46 46 46 46 46 46 46 47 47 46 46 46 46 46 46 46 46 46 46 46 46 46 46
    0 0 0 0 0 0 0 0 0 0 0 0 0 0 0 0 0 0 0 0 0 0 0 0 0 20 21 22 23 0 0 26 27 28 29 0 0 0 0 0 0 0 0 0 0 0 0 0 0 0 45 46 46 44 44 44 33 44 45 45 43 43 44 43 43 43 43 44 44 45 43 43 43 43 43 44 44 44 45 46 43 44 44 45 45 44 44 44 44 44 45 45 44 44 44 44 44 44 40 40 40 40 45 45 45 45 45 46 45 44 43 44 44 45 45 45 46 46 45 41 42 42 43 44 44 44 45 45 46 46 46 45 46 43 43 43 43 44 44 44 44 44 44 44 44 44 45 45 45 45 45 44 44 44 45 46 73 74 75 76 78 0 0 83 83 83 96 96 96 96 0 0 0 0 0 0 0 0 0 0 0 0 0 0 68 68 68 68 68 68 69 69 70 70 70 70 70 70 70 70 70 70 70 70 70 70 70 70 70 70 67 67 68 68 68 68 68 68 68 68 0 0 0 0 0 43 44 45 44 44 45 45 45 44 44 44 44 44 44 44 44 44 44 44 44 44 44 44 44 44 44 45 45 44 44 44 44 44 44 44 45 45 45 46 45 45 44 44 45 45 45 45 45 44 44 44 44 44 44 45 45 45 44 44 44 44 44 44 44 44 44 44 45 45 45 44 44 44 44 44 44 44 44 44 44 45 45 45 45 45 45 44 44 43 44 44 44 44 44 44 44 44 44 44 44 44 44 44 44 44 44 44 44 44 44 44 44 44 44 45 44 45 45 45 45 45 45 45 45 45 45 45 44 45 45 44 45 45 45 45 45 45 44 44 44 44 44 44 44 44 44 44 45 46 47 48 48 0 0 48 49 49 48 48 49 50 51 51 51 51 52 50 51 48 49 50 51 51 52 52 52 49 47 47 46 46 46 46 46 47 48 49 50 51 51 50 50 50 50 50 52 49 49 49 50 51 51 52 53 53 53 53 53 52 53 53 54 54 54 54 54 54 54 53 53 54 52 53 54 55 55 55 55 55 55 55 55 55 55 55 55 54 53 53 54 54 55 55 55 55 55 55 54 54 55 55 54 54 54 54 54 54 54 54 54 54 54 53 53 53 53 53 53 53 53 53 53 53 53 53 53 53 53 53 53 54 51 0 0 0 48 49 49 49 0 0 46 46 46 46 46 47 47 47 48 49 50 50 50 50 50 50 50 51 51 51 51 51 51 51 52 52 52 53 53 53 53 53 52 52 52 52 52 52 52 52 52 52 52 52 52 52 52 0 49 50 51 51 51 46 46 46 46 46 46 46 46 46 46 46 46 46 46 46 46 46 46 46 46 46 46 46 46 46 46 46 46 46 46 46 46 47 47 47 47 46 46 47 46 46 47 47 47 47 47 47 47 47 47 47 46 46 46 46 47 47 47 47 46 46 46 46 46 46 46 46 46 46 46 46 46
    0 0 0 0 0 0 0 0 0 0 0 0 0 0 0 0 0 0 0 0 0 0 0 0 0 20 21 22 0 0 0 0 0 0 29 0 0 0 0 0 0 0 0 0 0 0 0 0 17 44 45 46 45 45 45 45 45 46 46 46 43 43 44 44 44 44 44 45 45 45 46 44 43 43 43 44 44 44 45 46 46 47 47 47 47 47 46 45 46 46 46 46 45 44 44 44 45 44 45 45 46 46 45 45 45 45 45 46 46 45 44 44 45 45 45 46 46 46 46 41 41 42 43 44 44 45 45 45 46 46 46 46 46 46 45 45 45 44 44 44 43 44 44 44 44 45 45 45 45 46 45 45 45 46 46 47 73 74 75 76 77 88 88 83 83 83 84 96 96 0 0 0 0 0 0 0 0 0 0 0 0 0 0 68 68 68 68 68 68 69 69 70 70 70 70 70 70 70 70 70 70 70 70 70 70 70 69 69 70 68 68 68 68 68 68 68 68 68 68 68 0 0 0 0 42 44 45 45 46 46 45 45 45 45 45 45 44 44 45 44 44 44 44 44 44 44 45 45 45 45 45 46 46 45 45 45 45 45 45 45 45 46 46 46 46 46 46 45 45 46 46 46 46 45 44 44 44 45 45 46 46 46 46 45 45 45 45 45 45 45 45 45 45 45 46 46 45 45 44 44 44 44 44 44 45 45 45 45 45 45 45 46 46 46 46 46 45 45 45 45 44 45 45 45 44 44 44 44 44 44 44 45 45 45 44 44 44 44 45 45 45 45 45 45 45 45 45 45 45 46 46 46 45 45 45 45 45 45 45 45 45 45 45 45 46 46 46 44 44 44 44 45 45 46 47 48 48 49 49 48 49 48 48 48 49 50 51 51 51 52 52 50 51 51 49 50 51 51 51 52 52 49 49 48 46 46 46 46 47 47 48 49 49 50 50 50 50 50 51 51 52 50 50 50 50 51 51 52 52 53 53 53 53 53 53 53 54 54 54 54 54 54 54 54 54 54 54 55 54 55 55 55 54 55 55 55 55 55 55 54 54 54 54 54 54 54 55 55 55 55 55 54 54 54 54 55 55 55 54 54 54 54 54 54 54 54 54 53 53 53 53 53 53 53 53 53 54 54 54 53 53 53 53 53 53 54 54 0 0 50 50 50 50 50 0 0 46 46 46 46 47 47 47 48 48 50 53 54 0 50 51 51 50 51 51 51 51 51 52 52 52 52 53 53 53 53 53 53 53 52 52 52 52 53 52 52 52 52 52 52 52 52 52 52 52 51 51 52 52 46 46 46 46 46 47 47 46 46 45 45 46 46 46 46 46 46 47 46 46 46 46 46 46 46 46 47 47 46 46 47 47 47 47 47 47 47 47 47 47 47 47 47 47 47 47 47 47 47 47 47 47 47 47 47 47 47 47 47 47 47 46 46 46 46 46 47 47 47 47 47 48
    0 0 0 0 0 0 0 0 0 0 0 0 0 0 0 0 0 0 0 0 0 0 0 0 0 20 21 22 0 0 0 0 0 0 0 0 0 0 0 0 0 0 0 0 0 0 0 0 19 44 45 46 46 45 45 45 45 46 46 46 46 44 44 45 45 45 45 46 46 46 46 47 47 47 41 42 43 46 46 46 46 47 47 47 47 48 48 47 47 48 47 46 46 44 44 45 45 45 45 46 46 46 45 45 45 45 45 46 46 46 45 45 45 45 45 46 46 47 47 46 42 43 44 45 47 47 48 48 48 48 46 46 46 46 45 45 46 46 46 46 46 44 44 45 44 45 45 45 46 46 46 46 46 47 48 49 50 83 84 86 87 88 89 89 89 90 90 87 0 0 0 0 0 0 0 0 0 0 0 0 0 68 68 68 68 68 68 68 69 69 70 70 70 70 70 70 70 70 70 70 71 71 70 70 70 69 69 69 68 68 68 68 68 68 68 68 68 68 68 68 0 0 44 45 47 47 46 46 46 46 45 46 46 46 46 46 47 47 46 46 46 46 46 46 47 47 47 47 47 47 47 47 47 46 46 46 46 46 45 45 46 46 46 46 46 46 46 46 46 46 46 46 46 47 46 46 46 46 46 46 46 47 47 47 46 46 46 46 46 46 46 47 47 46 46 46 46 46 46 45 44 45 45 45 45 45 45 45 45 45 46 46 46 47 47 47 45 45 45 45 45 45 45 45 45 45 44 44 44 44 45 45 45 46 45 45 45 45 45 45 45 46 46 46 45 45 45 46 46 46 47 46 46 46 46 45 46 45 45 45 45 45 45 45 46 46 46 46 45 45 45 45 46 46 47 47 48 49 48 48 48 48 48 47 49 50 51 46 46 52 52 50 51 51 49 50 51 51 51 51 51 49 49 49 49 50 47 47 47 48 48 49 49 50 50 50 50 51 51 51 52 50 50 50 50 51 51 52 52 53 53 53 53 53 53 53 54 54 54 54 54 54 54 54 54 54 55 55 55 55 55 55 55 55 55 55 55 55 54 54 54 54 54 54 54 55 55 55 55 55 55 55 55 54 55 55 55 55 54 54 54 53 54 53 54 54 54 53 53 53 53 53 53 53 54 54 55 55 0 0 0 0 53 53 54 54 54 0 0 0 51 51 0 0 0 0 0 0 0 0 0 0 0 52 52 53 53 53 0 0 0 51 51 51 51 52 52 52 52 52 52 53 53 53 53 53 53 53 53 53 53 53 53 53 52 52 52 52 52 52 52 52 52 52 52 52 52 52 52 52 52 47 46 46 47 46 46 37 37 38 57 57 40 46 46 46 47 47 47 46 46 46 46 47 47 47 47 47 47 47 47 47 47 47 47 47 47 47 47 47 47 47 47 47 47 47 47 47 47 47 47 47 47 47 47 47 47 47 47 47 47 47 47 47 47 48 48 48 48 49 49
    0 0 0 0 0 0 0 0 0 0 0 0 0 0 0 0 0 0 0 0 0 0 0 0 0 0 0 0 0 0 0 0 0 0 0 0 0 0 0 0 0 0 0 0 0 18 18 19 20 20 45 46 46 45 45 45 46 46 47 48 47 47 45 45 46 46 46 46 46 46 46 47 47 47 48 48 47 47 47 47 47 47 48 48 48 48 48 47 48 48 47 47 46 46 45 45 45 45 46 46 46 46 46 46 45 46 46 46 46 45 45 45 45 46 46 46 47 47 47 47 47 43 44 46 47 48 48 48 48 48 46 46 46 47 46 46 46 46 46 46 46 47 47 47 47 46 46 46 46 46 46 46 47 48 49 50 83 83 84 85 87 88 88 89 89 90 91 88 88 0 0 0 0 0 0 0 0 0 0 0 0 68 69 69 68 68 69 69 70 70 70 70 70 70 70 70 70 70 70 71 71 71 70 70 69 69 69 68 68 68 68 68 68 68 68 68 68 68 68 68 43 44 46 47 48 47 47 47 46 46 47 47 47 48 47 47 48 47 47 48 48 47 48 47 47 48 48 49 48 48 48 47 47 46 46 46 46 46 46 46 46 46 46 46 46 46 46 46 46 46 46 46 47 47 47 47 47 47 47 47 47 47 47 47 47 47 47 47 47 47 47 47 47 47 47 47 47 46 46 46 45 46 46 45 45 46 47 47 47 47 47 47 47 47 47 47 46 46 46 46 46 46 46 46 47 46 46 46 46 47 47 47 47 47 47 46 45 46 45 46 46 47 47 47 46 46 46 46 46 46 47 47 46 46 46 46 46 46 46 46 46 46 46 46 46 46 46 46 46 46 47 47 46 46 47 47 48 48 48 48 48 48 49 49 49 50 45 45 46 52 52 49 51 51 49 50 50 50 51 51 51 49 48 48 49 47 47 48 48 48 48 49 49 50 50 50 51 51 51 51 52 51 51 50 50 51 51 52 52 53 53 53 53 54 54 53 54 54 54 54 54 54 54 54 54 54 55 55 55 55 55 55 55 55 55 55 55 55 55 55 55 55 54 54 54 55 55 55 55 55 55 55 55 54 55 55 55 55 54 54 52 53 53 53 54 54 54 54 53 53 53 54 54 55 0 0 0 0 0 0 0 0 0 0 54 54 55 0 0 0 51 51 0 0 0 0 0 0 0 0 0 0 0 53 53 53 53 53 53 0 0 0 0 52 52 53 53 52 53 53 53 53 53 53 53 53 53 53 53 53 53 53 52 53 52 52 53 53 52 52 52 52 52 52 52 52 52 52 52 52 52 52 52 52 52 53 54 0 0 0 0 0 40 40 46 47 47 47 47 47 46 47 47 47 47 47 47 47 47 47 47 47 47 47 47 47 48 47 47 47 47 47 47 47 47 47 47 47 47 47 47 47 47 48 48 47 48 48 48 48 48 48 48 48 48 48 48 49 49 49 49
    0 0 0 0 0 0 0 0 0 0 0 0 0 0 0 0 0 0 0 0 0 0 0 0 0 0 0 0 0 0 0 0 0 0 0 0 0 0 0 0 0 0 0 0 0 17 18 19 20 20 45 46 46 46 46 47 47 47 48 48 49 50 51 46 46 47 47 47 46 46 46 47 47 47 48 48 48 47 47 47 47 48 49 49 48 48 48 48 48 48 48 47 47 47 47 47 47 46 46 46 46 46 46 46 45 46 47 47 48 48 44 45 46 46 47 47 47 47 48 48 48 48 48 47 95 95 94 48 48 49 48 47 47 47 47 48 48 47 46 46 47 47 47 48 48 48 48 48 48 49 47 47 48 49 77 78 79 82 83 83 83 88 88 89 89 90 90 89 89 89 0 0 0 21 0 0 0 0 0 0 69 68 69 69 69 69 70 70 70 70 70 70 70 70 70 70 70 70 71 71 71 70 70 70 69 69 69 69 69 0 0 68 68 68 68 68 68 68 38 48 48 48 48 48 48 48 48 48 48 48 48 48 48 48 48 48 48 48 47 48 48 48 48 48 48 48 49 49 48 48 48 48 48 47 47 47 47 47 47 47 47 47 48 48 49 49 49 49 49 49 49 49 49 49 49 49 49 49 49 49 47 47 47 47 47 47 47 47 47 47 47 47 47 47 47 47 47 47 47 47 47 47 46 46 46 47 47 48 48 48 48 47 47 47 47 47 47 47 47 47 47 47 47 47 47 48 48 48 48 48 47 47 47 47 47 47 47 47 47 47 47 48 48 47 48 46 46 46 46 47 47 47 47 47 46 46 46 46 46 46 46 46 46 46 46 46 46 47 47 47 47 47 47 47 47 47 48 48 48 49 49 49 49 49 49 40 41 44 52 52 52 48 50 50 49 50 50 50 51 51 51 48 48 48 48 49 49 48 48 48 49 49 49 50 50 51 51 51 51 51 52 52 51 49 50 51 52 52 53 53 54 54 54 54 54 53 54 54 54 54 54 54 54 54 55 55 55 55 55 55 55 55 55 55 55 55 55 55 55 55 55 55 54 55 55 55 55 55 55 55 55 55 55 54 55 55 55 55 54 54 53 53 54 54 54 54 54 54 54 54 55 55 0 0 0 0 0 0 0 0 0 0 0 0 54 54 55 55 55 55 55 55 0 0 0 0 0 0 0 0 52 53 53 53 53 53 53 53 53 0 0 0 0 53 53 53 53 53 53 53 53 53 53 53 53 53 53 53 53 53 53 52 52 52 52 53 53 53 53 53 53 52 52 53 53 53 52 52 52 52 52 52 52 52 52 52 52 52 52 52 52 52 0 0 0 0 0 48 47 47 47 47 47 47 47 48 47 47 47 47 47 47 48 47 47 47 48 48 47 47 47 47 47 47 47 47 47 47 47 47 47 47 47 48 48 48 48 48 48 48 49 49 49 49 49 49 49 49 49 49 49</data></Disparity>
</opencv_storage>
