<?xml version="1.0"?>
<opencv_storage>
<Disparity type_id="opencv-matrix">
  <rows>52</rows>
  <cols>641</cols>
  <dt>u</dt>
  <data>
    0 0 0 0 0 0 0 0 0 0 0 0 0 0 0 0 0 0 0 0 0 0 0 0 0 0 0 24 25 25 25 25 25 25 25 26 26 25 25 25 25 26 26 26 26 26 26 26 26 26 26 26 26 26 26 26 26 26 26 27 27 27 26 26 20 27 27 26 26 26 27 27 27 27 27 27 27 27 27 27 27 27 27 27 27 28 28 28 28 28 28 28 28 28 28 28 28 28 28 28 83 28 28 28 28 29 29 29 29 29 29 29 29 29 29 29 90 29 30 30 30 30 30 30 29 30 30 30 30 30 30 30 30 30 30 30 30 30 30 30 30 30 31 31 31 31 31 31 31 31 31 31 31 31 31 31 31 31 31 31 31 31 31 31 31 31 31 30 30 30 31 31 31 31 31 31 31 31 31 31 30 31 31 31 31 31 31 31 31 30 31 31 31 31 31 36 31 31 31 31 31 31 31 31 31 31 31 31 31 31 31 31 31 31 31 31 31 31 31 31 31 31 31 31 31 31 31 31 31 31 31 31 31 31 31 31 31 31 31 31 31 31 31 31 31 31 31 31 31 31 31 31 31 31 31 31 31 31 31 31 31 31 31 31 31 31 31 31 31 31 31 31 31 31 31 31 31 31 31 31 31 31 32 38 31 31 32 32 0 0 32 32 32 32 32 32 32 32 32 32 32 32 32 32 32 32 32 32 32 32 32 32 32 32 32 32 32 32 32 32 32 32 32 32 32 32 32 0 0 0 0 0 0 0 0 0 0 0 0 0 0 0 0 0 0 0 0 0 47 61 46 46 46 46 0 0 0 57 57 58 58 58 58 58 58 58 57 57 57 58 58 58 58 58 58 58 58 58 59 59 59 59 59 59 59 59 59 59 59 60 60 61 60 60 62 33 33 57 0 0 55 53 53 53 53 53 53 58 54 55 55 55 0 55 55 55 55 54 53 54 0 0 0 0 0 0 0 0 0 0 0 0 0 0 39 39 39 39 40 0 0 42 42 42 42 42 15 15 16 18 19 20 21 22 22 23 24 25 26 27 28 29 30 44 49 53 54 62 63 64 65 66 60 42 43 43 44 44 44 45 45 45 45 45 0 0 0 0 0 0 0 0 0 0 0 0 0 0 0 0 0 0 0 0 0 0 0 0 0 0 0 0 88 89 90 91 92 93 94 95 67 68 71 72 73 74 67 67 67 67 112 68 69 69 69 69 69 69 69 69 69 69 69 69 69 69 69 69 69 68 68 0 0 0 0 0 0 0 0 0 0 0 0 0 0 0 0 1 0 0 0 0 0 0 0 0 0 0 0 0 0 0 0 0 0 55 55 55 55 55 55 55 55 55 55 55 55 55 55 55 55 55 54 54 0 0 0 0 26 26 25 26 26 26 26 26 26 26 26 25 25 25 26 30 25 25 25 25 26 26 26 25 25 31 31 25 25 25 26 26 47
    0 0 0 0 0 0 0 0 0 0 0 0 0 0 0 0 0 0 0 0 0 0 0 0 0 0 0 0 25 25 25 25 25 25 26 25 25 25 25 25 26 26 26 26 26 26 26 26 26 26 26 26 26 27 26 26 26 26 26 27 27 27 26 26 20 27 27 27 27 27 27 27 27 27 27 27 27 27 27 27 27 27 27 27 27 28 28 28 28 28 28 28 28 28 28 28 28 28 28 84 28 28 28 29 29 29 29 29 29 29 29 29 29 29 29 29 29 91 30 30 30 30 30 30 30 30 30 30 30 30 30 30 30 30 30 30 30 30 30 30 30 31 31 31 31 31 31 31 31 31 31 31 30 30 30 30 31 31 31 31 31 31 31 31 31 31 31 31 30 31 31 31 31 31 31 31 31 31 31 31 31 30 31 31 31 31 31 31 31 31 31 31 31 31 31 30 31 31 31 31 31 31 31 31 31 31 31 31 31 31 31 31 31 31 31 31 31 31 31 31 31 31 31 31 31 31 31 31 31 31 31 31 31 31 31 31 31 31 31 31 31 31 31 31 31 31 31 31 31 31 31 31 31 31 31 31 31 31 31 31 31 31 31 31 31 31 31 31 31 31 31 31 31 31 31 31 31 31 31 31 31 31 32 38 38 31 32 32 32 0 32 32 32 32 32 32 32 32 32 32 32 32 32 32 32 32 32 32 32 32 32 32 32 32 32 32 32 32 32 32 32 32 32 32 32 32 33 0 0 0 0 0 0 0 0 0 0 0 0 0 0 0 0 0 0 0 0 0 0 61 62 46 46 46 0 0 0 57 57 57 58 58 58 58 58 58 58 57 57 58 58 58 58 58 58 59 58 58 58 58 59 59 59 59 59 59 59 59 59 60 60 60 61 62 62 64 33 57 0 0 55 53 53 53 53 53 53 58 54 55 55 55 0 55 55 55 54 53 53 54 0 0 0 0 0 0 0 0 0 0 0 0 0 0 39 39 39 0 0 0 0 42 42 42 42 28 15 16 17 34 19 20 21 22 23 24 25 25 26 27 28 29 30 45 45 53 54 55 63 59 59 60 61 42 43 43 44 44 44 45 45 45 45 45 0 0 0 0 0 0 0 0 0 0 0 0 0 0 0 0 0 0 0 0 0 0 0 0 0 62 62 61 87 88 90 91 92 93 94 70 71 72 72 73 74 67 67 67 68 68 68 69 69 69 69 69 69 69 69 69 69 69 69 70 70 69 69 69 68 68 0 0 0 0 0 44 0 0 0 0 0 0 0 0 0 0 0 0 0 0 0 0 0 0 0 0 0 0 0 0 0 0 0 0 55 55 55 55 55 55 54 54 55 55 55 55 55 55 55 54 55 54 0 0 0 0 0 26 25 25 26 26 26 26 26 26 26 25 25 25 25 26 26 26 25 25 25 25 25 26 26 25 25 31 31 26 25 25 25 26 25
    0 0 0 0 0 0 0 0 0 0 0 0 0 0 0 0 0 0 0 0 0 0 0 0 0 0 0 0 25 25 25 25 25 26 26 25 25 25 26 26 25 25 26 26 26 26 26 26 26 26 26 26 26 26 27 27 27 26 26 26 27 27 26 26 27 27 27 27 27 27 27 27 27 27 27 27 27 27 27 27 27 27 27 27 28 0 0 0 28 28 28 28 28 28 28 28 28 28 28 28 28 28 28 29 29 29 29 29 29 29 29 29 29 29 29 29 29 29 91 30 30 30 30 30 30 30 30 30 30 30 30 30 30 30 30 30 30 30 30 30 30 31 31 31 31 31 31 31 31 31 31 31 29 30 30 30 31 32 32 31 31 31 31 31 31 31 31 31 31 31 31 31 31 31 31 31 31 31 31 31 31 31 31 31 31 31 31 31 31 31 31 31 31 31 31 30 31 31 31 31 31 31 31 31 31 31 31 31 31 31 31 31 31 31 31 31 31 31 31 31 31 31 31 31 31 31 31 31 31 31 31 31 31 31 31 31 31 31 31 31 31 31 31 31 31 31 31 31 31 31 31 31 31 31 31 31 31 31 31 31 31 31 31 31 31 31 31 31 31 31 31 31 31 31 31 31 31 31 31 31 31 31 32 103 103 31 32 32 32 32 32 32 32 32 32 32 32 32 32 32 32 32 32 32 32 32 32 32 32 32 32 32 32 32 32 32 32 32 32 32 32 32 32 32 32 32 33 0 0 0 0 0 0 0 0 0 0 0 0 0 0 0 0 0 0 0 49 0 0 0 46 46 46 46 46 0 0 57 57 57 58 58 58 58 58 58 58 57 58 58 58 58 58 58 58 58 58 58 59 59 59 59 59 59 59 59 59 59 59 59 60 60 61 61 62 63 33 57 0 0 55 53 53 53 53 53 53 58 54 55 55 55 55 55 55 55 54 54 53 54 0 0 0 0 0 0 0 0 0 0 0 0 0 39 39 0 112 0 0 42 42 42 42 42 29 29 15 16 17 18 19 20 21 22 23 24 25 26 26 27 28 29 44 45 52 54 55 62 63 59 60 61 42 43 43 43 44 44 44 44 45 45 45 45 0 0 0 0 0 0 0 0 0 0 0 0 0 0 0 0 0 0 0 0 0 0 0 0 0 62 85 86 87 89 90 91 92 67 68 70 71 73 74 67 67 67 67 68 68 68 68 69 69 69 69 69 69 69 69 69 69 70 69 69 69 68 69 69 69 0 0 0 0 0 47 47 0 0 0 0 0 0 0 0 0 0 0 0 0 0 0 0 0 0 0 0 0 0 0 0 0 0 0 55 55 55 55 55 55 55 54 55 55 55 55 55 55 55 54 54 54 54 0 0 0 0 26 26 25 25 26 0 26 26 26 25 25 25 25 25 25 26 26 26 26 25 25 25 25 26 26 25 25 25 31 31 26 25 25 25 25
    0 0 0 0 0 0 0 0 0 0 0 0 0 0 0 0 0 0 0 0 0 0 0 0 0 0 0 0 25 25 25 25 25 25 25 25 25 25 25 25 25 25 26 26 26 26 26 26 26 26 26 26 26 26 26 27 27 27 27 27 27 26 26 26 27 27 27 27 27 27 27 27 27 27 27 27 27 27 27 27 27 27 27 27 27 0 0 0 28 28 28 28 28 28 28 28 28 28 28 28 28 49 29 29 29 29 29 29 29 29 29 29 29 29 29 29 29 29 29 29 30 30 30 30 30 30 30 30 30 30 30 30 30 30 30 30 30 30 30 30 39 31 31 31 31 31 31 31 31 31 31 31 31 30 31 31 31 31 31 31 31 31 31 31 31 31 31 31 31 31 31 31 31 31 31 31 31 31 31 31 31 31 31 31 31 31 31 31 31 31 31 31 31 31 31 31 31 31 31 31 31 31 31 31 31 31 31 31 31 31 31 31 31 31 31 31 31 31 31 31 31 31 31 31 31 31 31 31 31 31 31 31 31 31 31 31 31 31 31 31 31 31 31 31 31 31 31 31 31 31 31 31 31 31 31 31 31 31 31 31 31 31 31 31 31 31 31 31 31 31 31 31 31 31 31 31 31 31 31 31 31 32 32 31 32 32 32 32 32 32 32 32 32 32 32 32 32 32 32 32 32 32 32 32 32 32 32 32 32 32 32 32 32 32 32 32 32 32 32 32 32 32 32 32 32 32 0 0 0 0 0 0 0 0 0 0 0 0 0 0 51 0 0 0 0 0 49 50 0 0 45 46 46 46 0 0 0 57 57 57 57 58 58 58 58 58 58 57 57 58 58 58 58 58 58 58 58 58 58 58 58 59 59 59 59 59 59 59 59 59 59 60 61 61 61 62 34 57 57 0 55 53 53 53 53 53 53 58 54 55 55 55 55 55 55 55 54 54 53 54 0 0 0 0 0 0 0 36 0 0 0 0 39 39 39 40 112 0 0 42 42 42 42 30 29 15 16 17 18 19 20 21 22 22 24 25 26 26 26 27 44 44 50 58 54 55 55 62 62 62 60 63 43 43 43 43 44 44 44 45 45 45 45 0 0 0 0 0 0 0 0 0 0 0 0 0 0 0 0 0 0 0 0 0 0 0 0 62 62 85 86 87 88 89 90 91 67 68 71 72 72 66 67 67 67 68 68 68 68 68 69 69 69 69 68 68 68 69 69 69 70 70 69 69 69 68 69 0 0 0 0 0 0 0 0 0 0 0 0 0 0 0 0 0 0 0 42 0 0 0 0 0 0 0 0 0 0 0 0 0 0 55 55 55 55 55 55 55 55 54 55 55 55 55 55 55 55 55 54 54 54 0 0 0 0 1 26 26 26 84 26 0 26 26 26 25 25 25 25 25 25 25 26 26 26 26 25 25 25 25 26 26 25 25 31 31 26 26 25 25 25
    0 0 0 0 0 0 0 0 0 0 0 0 0 0 0 0 1 2 2 0 0 0 0 0 0 0 0 0 25 25 25 25 25 25 25 25 25 25 25 25 25 26 26 26 26 26 26 26 26 26 26 26 26 26 26 26 27 27 27 27 27 26 26 27 27 27 27 27 27 27 27 27 27 27 27 27 27 27 27 27 27 27 27 27 27 0 0 0 27 28 28 28 28 28 28 28 28 28 28 28 28 29 49 29 29 29 29 29 29 29 29 29 29 29 29 29 29 29 29 29 29 29 30 30 30 30 30 30 30 30 30 30 30 30 30 30 83 30 30 30 30 31 31 31 31 31 31 31 31 31 31 31 31 30 30 31 31 31 31 31 31 31 31 31 31 31 31 31 31 31 31 31 31 31 31 31 31 31 31 31 31 31 31 31 31 31 31 31 31 31 31 31 31 31 31 31 31 31 31 31 31 31 31 31 31 31 31 31 31 31 31 31 31 31 31 31 31 31 31 31 31 31 31 31 31 31 31 31 31 31 31 31 31 31 31 31 31 31 31 31 31 31 31 31 31 31 31 31 31 31 31 31 31 31 31 31 31 31 31 31 31 31 31 31 31 31 31 31 31 31 31 31 31 31 31 31 31 31 31 31 31 32 32 109 32 32 32 32 32 32 32 32 32 32 32 32 32 32 32 32 32 32 32 32 32 32 32 32 32 32 32 32 32 32 32 32 32 32 32 32 32 32 32 32 32 32 0 0 0 0 0 0 0 0 0 0 0 0 0 0 0 0 0 0 0 49 49 50 0 0 45 46 46 47 0 0 0 57 57 57 57 57 58 57 57 58 58 57 57 57 58 58 58 58 58 58 58 58 58 58 58 59 59 59 59 59 59 59 59 59 59 59 60 61 61 62 57 34 58 0 54 53 53 53 53 53 53 57 54 55 55 55 55 55 55 55 54 54 53 95 0 0 0 0 0 0 0 0 0 0 0 0 0 39 39 40 112 0 42 42 42 42 13 14 15 15 17 18 19 19 20 21 22 23 25 26 26 25 26 27 44 44 56 56 56 56 57 57 62 62 62 64 43 43 43 43 44 44 45 45 45 45 45 0 0 0 0 93 0 0 0 0 0 0 0 0 0 0 0 0 0 18 0 0 61 0 62 62 84 85 86 87 88 89 66 67 70 71 71 66 66 66 67 67 68 68 68 68 68 68 68 68 68 68 68 68 68 69 69 69 69 68 68 68 68 0 0 0 0 0 0 0 0 0 0 0 0 0 0 0 0 0 0 0 0 58 0 0 0 0 0 0 0 0 0 0 0 0 0 0 55 55 55 55 55 55 55 55 55 55 55 55 55 55 55 55 55 54 54 54 0 0 0 0 25 25 25 26 26 26 26 0 0 26 26 25 25 25 25 25 25 25 26 26 26 26 25 25 25 26 26 26 26 25 25 31 26 26 26 25 25
    0 0 0 0 0 0 0 0 0 0 0 0 0 0 0 0 0 2 2 0 0 0 0 0 0 0 0 0 25 25 25 25 25 25 25 26 25 25 25 25 26 26 26 26 26 26 26 26 26 26 26 26 26 26 26 26 26 26 26 27 27 27 27 27 27 27 27 27 27 27 27 27 27 27 27 27 27 27 27 27 27 27 27 27 27 64 0 0 27 28 28 27 28 28 28 28 28 28 28 28 28 28 49 29 29 29 29 29 29 29 29 29 29 29 29 29 29 29 29 29 29 29 30 30 30 30 30 30 30 30 30 30 30 30 30 30 30 30 30 30 30 30 31 31 31 31 31 31 31 31 31 31 31 31 31 31 31 31 31 31 31 31 31 31 31 31 31 31 31 31 31 31 31 31 31 31 31 31 31 31 31 31 31 31 31 31 31 31 31 31 31 31 31 31 31 31 31 31 31 31 31 31 31 31 31 31 31 31 31 31 31 31 31 31 31 31 31 31 31 31 31 31 31 31 31 31 31 31 31 31 31 31 31 31 31 31 31 31 31 31 31 31 31 31 31 31 31 31 31 31 31 31 31 31 31 31 31 31 31 31 31 31 31 31 31 31 31 31 31 31 31 31 31 31 31 31 31 31 31 32 32 32 32 32 32 32 32 31 32 32 32 32 32 32 32 32 32 32 32 32 32 32 32 32 32 32 32 32 32 32 32 32 32 32 32 32 32 32 32 32 32 32 32 32 32 32 0 0 0 0 0 0 0 0 0 0 0 0 0 0 0 0 0 0 0 0 50 50 0 0 45 46 46 47 0 0 57 56 57 57 57 57 57 57 57 57 58 57 57 57 57 58 58 58 58 58 58 58 58 58 58 59 59 59 59 59 58 59 59 59 59 59 60 61 61 62 57 34 58 36 54 53 53 53 53 53 53 57 54 54 55 55 55 55 55 55 54 54 53 95 0 0 0 0 0 0 0 37 0 0 0 0 0 39 39 40 41 0 42 42 0 0 13 15 15 16 17 18 19 20 21 22 23 24 25 26 26 26 26 44 44 52 56 56 56 57 57 58 62 62 62 43 43 43 43 44 44 45 45 45 45 45 0 0 0 0 0 0 0 0 0 0 0 0 0 0 0 0 0 0 0 0 0 0 61 88 83 62 84 85 86 87 89 66 69 70 71 66 66 66 66 67 68 68 68 68 68 68 68 68 68 68 68 68 68 68 69 69 69 68 68 68 68 68 68 0 0 0 0 0 0 0 0 32 33 34 0 0 0 0 0 0 0 0 0 0 0 0 63 0 0 0 0 0 0 0 54 55 55 55 55 55 55 55 55 55 55 55 55 55 55 56 55 55 55 54 54 54 54 0 0 0 0 27 26 26 26 26 26 26 26 26 0 0 26 26 25 25 25 25 25 26 26 26 26 12 25 25 25 26 26 26 26 25 32 32 26 26 26 25 25
    0 0 0 0 0 0 0 0 0 0 0 0 0 0 0 0 0 0 0 0 0 0 0 0 0 0 0 0 25 25 25 25 25 25 25 26 18 25 25 26 26 26 26 26 26 26 26 26 26 26 26 26 26 26 26 26 27 27 26 26 26 27 27 27 27 27 27 27 27 27 27 27 27 27 27 27 27 27 27 27 27 28 27 27 27 27 27 27 27 28 28 28 28 28 28 28 28 28 28 28 28 28 49 29 29 29 29 29 29 29 29 29 29 29 29 29 29 29 29 29 29 29 29 30 30 30 30 30 30 30 30 30 30 30 30 30 30 30 30 30 31 30 31 31 31 31 31 31 31 31 31 31 31 31 31 31 31 31 31 31 31 31 31 31 31 31 31 31 31 31 31 31 31 31 31 31 31 31 31 31 31 31 31 31 31 31 31 31 31 31 31 31 31 31 31 31 31 31 31 31 31 31 31 31 31 31 31 31 31 31 31 31 31 31 31 31 31 31 31 31 31 31 31 31 31 31 31 31 31 31 31 31 32 31 31 31 31 31 31 31 31 31 31 31 31 31 31 31 31 31 31 31 31 31 31 31 31 31 31 31 31 31 31 31 31 31 31 31 31 31 31 31 31 31 32 31 31 31 32 32 32 32 67 32 32 32 32 32 32 32 32 32 32 32 32 32 32 32 32 32 32 32 32 32 32 32 32 32 32 32 32 32 32 32 32 32 32 32 32 32 32 32 32 32 32 32 32 32 32 0 0 0 0 0 0 0 0 0 0 0 0 0 0 0 0 0 0 0 0 0 45 46 46 47 0 0 0 57 56 57 57 57 57 57 57 57 58 57 57 57 57 58 58 58 58 58 58 58 58 58 58 58 59 59 58 58 59 59 59 59 59 59 60 61 61 61 57 34 35 36 53 53 53 53 53 53 54 57 54 54 55 55 55 55 55 55 54 53 53 95 0 0 0 0 0 0 0 37 38 0 0 0 0 39 39 39 40 41 42 43 0 0 27 15 16 17 18 19 20 21 22 23 24 25 26 27 43 26 44 44 45 53 56 56 56 57 58 59 60 62 42 43 43 44 44 44 44 45 45 45 45 46 0 0 0 0 0 0 0 0 0 0 0 0 0 0 0 0 0 0 0 0 0 61 87 82 62 84 85 86 66 67 68 69 70 66 66 67 100 67 68 68 68 68 68 68 68 68 68 68 68 68 68 68 68 69 69 68 68 68 68 68 68 68 0 26 0 0 0 0 0 0 0 0 0 0 0 0 0 0 0 0 0 0 0 0 0 0 0 0 0 0 0 0 0 54 55 55 55 55 55 55 55 55 55 55 55 55 55 55 55 55 55 55 54 54 54 0 0 0 0 0 109 26 26 26 26 26 26 26 26 26 0 26 26 26 26 26 25 25 25 26 26 26 26 32 25 19 25 26 26 26 25 25 25 26 26 26 26 25 25
    0 0 0 0 0 0 0 0 0 0 0 0 0 0 0 0 0 0 0 0 0 0 0 0 0 0 0 24 25 25 25 25 25 26 26 25 25 25 0 25 26 26 26 26 26 26 26 26 26 26 26 26 26 26 26 26 27 27 26 26 26 27 27 27 27 27 27 27 27 27 27 27 27 27 27 27 27 27 27 27 27 27 27 27 27 27 27 27 28 28 28 28 28 28 28 28 28 28 28 28 28 28 28 29 29 29 29 29 29 29 29 29 29 29 29 29 29 29 29 29 29 29 29 30 30 30 30 30 30 30 30 30 30 30 30 30 30 30 31 31 30 30 30 85 85 31 31 31 31 31 31 31 31 31 31 31 31 31 31 31 31 31 31 31 31 31 31 31 31 31 31 31 31 31 31 31 31 31 31 31 31 31 31 31 31 31 31 31 31 31 31 31 31 31 31 31 31 31 31 31 31 31 31 31 31 31 31 31 31 31 31 31 31 31 31 31 31 31 31 31 31 31 31 31 31 32 31 31 31 31 31 31 32 32 31 31 31 31 31 31 31 31 31 31 31 31 31 31 31 31 31 31 31 31 31 31 31 31 31 31 31 31 31 31 31 31 31 31 31 32 32 32 31 31 31 31 31 31 32 32 31 32 32 32 32 32 32 32 32 32 32 32 32 32 32 32 32 32 32 32 32 32 32 32 32 32 32 32 32 32 32 32 32 32 32 32 32 32 32 32 32 32 32 32 32 32 32 32 32 32 0 0 0 0 0 0 0 0 0 0 0 0 0 0 0 0 0 0 0 0 0 46 47 47 47 0 0 57 57 57 57 57 57 57 57 57 57 57 57 57 57 57 58 58 58 58 58 57 58 58 58 58 58 58 59 59 59 59 59 59 59 59 60 61 61 61 57 34 35 36 58 53 53 53 53 53 54 54 54 54 55 55 55 55 55 55 54 53 53 0 0 0 0 0 0 0 0 37 38 38 0 0 0 39 39 39 40 41 42 43 0 0 27 15 16 17 18 19 20 21 22 23 24 25 46 27 27 27 44 45 45 54 55 55 57 58 58 59 61 61 43 43 44 44 44 45 45 45 45 45 45 0 0 0 0 0 0 0 0 0 0 0 0 0 0 0 0 0 0 0 0 0 61 61 62 62 85 86 65 65 67 68 69 66 66 66 98 99 68 68 68 68 68 68 68 68 68 68 68 68 68 68 68 68 68 68 68 67 67 68 68 0 0 0 27 0 0 0 0 0 0 0 0 0 0 0 0 0 0 0 0 0 0 0 0 0 20 49 0 0 0 0 57 58 54 55 55 55 55 55 55 55 55 55 55 55 55 55 55 55 55 55 54 54 54 54 0 0 0 0 0 26 26 26 101 26 26 26 26 0 26 26 26 26 26 26 26 26 26 25 26 26 26 31 25 25 25 25 26 26 26 26 25 25 26 26 26 26 25 25 25
    0 0 0 0 0 0 0 0 0 0 0 0 0 0 0 0 0 0 0 0 0 0 0 0 0 0 0 24 25 25 25 25 25 25 25 25 25 25 0 25 26 26 26 26 26 26 26 26 26 26 26 26 26 26 26 26 26 27 26 26 26 27 27 27 27 27 27 27 27 27 27 27 27 27 27 27 27 27 27 27 27 27 27 27 27 27 27 27 28 28 28 28 28 28 28 28 28 28 28 28 28 28 28 28 29 29 29 29 29 29 29 29 29 29 29 29 29 29 29 29 29 29 30 30 30 30 30 30 30 30 30 30 30 30 30 30 30 30 31 31 31 30 30 85 85 31 31 31 31 31 31 31 31 31 31 31 31 31 31 31 31 31 31 31 31 31 31 31 31 31 31 31 31 31 31 31 31 31 31 31 31 31 31 31 31 31 31 31 31 31 31 31 31 31 31 31 31 31 31 31 31 31 31 31 31 31 31 31 31 31 31 31 31 31 31 31 31 31 31 31 32 32 31 31 32 32 32 31 31 31 31 31 31 32 31 31 31 31 31 31 31 31 31 31 31 31 31 31 31 31 31 31 31 31 31 31 31 31 31 31 31 31 31 31 31 31 32 32 31 32 32 32 0 0 0 31 32 31 32 32 32 32 32 32 32 32 32 32 32 32 32 32 32 32 32 32 32 32 32 32 32 32 32 32 32 32 32 32 32 32 32 32 32 32 32 32 32 32 32 32 32 32 32 32 32 32 32 32 32 32 0 0 0 0 0 0 0 0 0 0 0 0 0 0 0 0 0 0 0 0 0 47 47 47 47 48 0 57 57 56 57 57 57 57 57 57 57 57 57 57 57 57 58 58 58 58 58 56 57 57 58 58 57 58 58 59 59 59 59 59 59 59 60 60 61 62 62 57 57 58 58 53 53 53 53 53 54 54 54 55 55 55 55 55 55 55 54 53 53 0 0 0 0 0 0 0 0 0 0 0 0 0 39 39 39 39 40 41 42 43 0 0 28 35 17 37 38 39 40 41 23 24 44 44 43 27 27 28 44 45 60 54 54 55 56 57 58 59 60 61 43 44 44 44 45 45 45 45 45 45 46 0 0 0 0 0 0 0 0 0 0 0 0 0 0 0 112 112 0 0 0 85 55 56 57 84 85 64 65 66 68 66 66 66 66 98 98 106 68 68 68 68 68 68 68 68 68 68 68 68 68 68 68 68 68 67 67 67 67 67 0 0 0 27 0 0 0 0 0 0 0 0 0 0 0 0 0 0 0 0 0 0 0 0 0 0 20 48 0 0 54 96 57 58 0 55 55 55 55 55 55 55 55 55 55 55 55 55 55 55 55 54 54 54 54 54 0 0 0 0 26 26 26 26 26 26 26 26 26 26 0 26 26 26 26 26 26 26 26 25 26 26 26 26 19 25 25 25 26 26 26 25 25 25 26 26 65 25 25 25 25
    0 0 0 0 0 0 0 0 0 0 0 0 0 0 0 0 0 0 0 0 0 0 0 0 0 0 0 0 0 0 0 0 26 26 25 25 25 25 26 25 26 26 26 26 26 26 26 26 26 26 26 26 26 26 26 26 26 26 26 26 26 27 27 27 27 27 27 27 27 27 27 27 27 27 27 27 27 27 27 27 27 27 27 27 27 27 27 28 27 27 28 28 28 28 28 28 28 28 28 28 28 28 28 28 29 29 29 29 29 29 29 29 29 29 29 29 29 29 29 29 29 30 30 30 30 30 30 30 30 30 30 30 30 30 30 30 30 31 31 30 30 30 30 31 31 31 31 31 31 31 31 31 31 31 31 31 31 31 31 31 31 31 31 31 31 31 31 31 31 31 31 31 31 31 31 31 31 31 31 31 31 31 31 31 31 31 31 31 31 31 31 31 31 31 31 31 31 31 31 31 31 31 31 31 31 31 31 31 31 31 31 31 31 31 31 31 31 31 31 32 32 32 31 31 31 31 32 32 32 31 31 31 31 32 31 31 31 31 31 31 31 31 31 31 31 31 31 31 31 31 31 31 31 31 31 31 31 31 31 31 31 31 31 31 31 32 32 32 32 32 32 32 0 0 0 31 31 32 101 31 32 32 32 32 32 32 32 32 32 32 32 32 32 32 32 32 32 32 32 32 32 32 32 32 32 33 33 32 32 32 32 32 32 32 32 32 32 32 32 32 32 32 32 32 32 32 32 32 32 32 32 0 0 0 0 0 0 0 0 0 0 0 0 0 0 0 0 0 0 0 0 47 47 48 48 48 0 0 57 56 57 57 57 57 57 57 57 57 57 57 57 57 58 58 58 58 58 56 56 57 57 57 57 58 58 59 59 59 59 59 59 59 59 60 61 61 62 56 57 58 58 52 53 53 53 54 55 54 54 55 55 55 55 55 55 55 54 53 53 53 0 0 0 0 0 0 0 0 0 0 0 0 39 39 39 40 41 42 0 43 0 43 29 32 33 37 38 39 40 41 39 24 44 45 43 43 28 44 45 45 50 54 54 55 56 58 59 60 61 61 43 44 44 45 45 45 45 45 45 46 46 0 0 0 0 0 0 0 0 0 0 0 0 0 0 0 25 0 0 61 84 61 56 82 83 64 65 66 67 68 66 66 66 66 66 104 105 68 68 68 68 68 68 68 68 68 68 68 68 68 68 67 67 67 67 67 67 67 67 0 0 26 0 0 0 0 0 0 0 0 0 0 0 0 0 0 0 0 0 0 0 0 0 0 0 20 0 49 0 0 54 55 56 100 101 55 55 55 55 55 55 55 55 55 55 55 55 55 55 55 54 54 54 54 54 0 0 0 0 26 26 26 26 26 26 25 26 26 26 26 26 26 26 26 26 26 26 26 26 26 26 26 26 26 19 25 25 46 26 26 26 25 25 26 26 25 25 25 26 26 25
    0 0 0 0 0 0 0 0 0 0 0 0 0 0 0 0 0 0 0 0 0 0 0 0 0 0 0 0 0 0 0 0 0 0 0 0 20 25 25 26 26 26 26 26 26 26 26 26 26 26 26 26 26 26 26 26 26 26 26 26 26 27 27 27 27 27 27 27 27 27 27 27 27 27 27 27 27 27 27 27 27 27 27 27 27 27 27 27 27 27 80 28 28 28 28 28 28 28 28 28 28 28 28 28 28 34 28 29 29 29 29 29 29 29 29 29 29 29 29 29 29 30 30 30 30 30 30 30 30 30 30 30 30 30 30 30 30 31 31 30 30 30 31 86 31 31 31 31 31 31 31 31 31 31 31 31 31 31 31 31 31 31 31 31 31 31 31 31 31 31 31 31 31 31 31 31 31 31 31 31 31 31 31 31 31 31 31 31 31 31 31 31 31 31 31 31 31 31 31 31 31 31 31 31 31 31 31 31 31 31 31 31 31 31 31 31 31 31 32 32 32 31 31 31 31 31 32 32 32 31 31 31 31 32 31 31 31 31 31 31 31 31 31 31 31 31 31 31 31 31 31 31 31 31 31 31 31 31 31 32 32 32 31 31 31 32 32 32 32 32 32 32 32 0 0 0 32 31 32 32 32 32 32 32 32 32 32 32 32 32 32 32 32 32 109 32 32 32 32 32 32 32 32 32 32 32 33 32 32 32 32 32 32 32 32 32 32 32 32 32 32 32 32 32 32 32 32 32 32 32 32 0 0 0 0 0 0 0 0 0 0 0 0 0 0 0 0 0 0 0 0 0 48 48 48 48 0 0 57 56 57 57 57 57 57 57 57 57 57 57 57 57 57 58 58 58 58 57 56 57 57 57 57 58 58 58 59 59 59 59 59 59 59 59 60 61 62 56 57 57 58 58 52 0 52 53 54 54 55 55 55 55 55 55 55 55 54 54 53 53 0 0 35 45 45 0 0 0 0 0 0 0 39 39 39 40 41 42 43 43 43 43 30 31 32 33 38 40 41 23 38 39 40 45 43 28 28 44 45 45 54 54 55 55 56 58 59 60 61 43 44 44 44 45 45 45 45 45 46 46 0 0 0 0 0 0 0 0 0 0 0 0 0 0 0 25 25 0 84 84 61 85 86 64 65 66 67 67 65 66 66 66 66 66 67 67 67 68 68 68 68 68 68 68 68 68 68 68 68 67 67 67 66 66 0 0 0 67 0 27 27 0 0 0 0 0 0 0 0 0 0 0 0 0 0 0 0 0 0 0 0 0 0 0 0 0 0 0 67 59 54 55 55 55 55 55 55 55 55 55 55 55 55 55 55 55 55 55 55 54 54 54 54 54 0 0 0 25 25 25 26 26 26 26 26 26 26 26 26 26 26 26 26 26 26 26 26 26 26 26 26 26 26 26 26 25 25 26 26 26 26 26 26 26 25 25 25 25 26 26 25
    0 0 0 0 0 0 0 0 0 0 0 0 0 0 0 0 0 0 0 0 0 0 0 0 0 0 0 0 0 0 0 0 0 0 0 0 0 0 0 0 0 26 26 26 26 26 26 26 26 26 26 26 26 26 26 26 26 26 26 26 27 27 27 27 27 27 27 27 27 27 27 27 27 27 27 27 27 27 27 27 27 27 27 27 27 27 27 27 27 27 28 28 28 28 28 28 28 28 28 28 28 28 28 28 28 28 28 29 29 29 29 29 29 29 29 29 29 29 29 29 30 30 30 30 30 30 30 30 30 30 30 30 30 30 30 30 30 30 31 30 30 30 31 31 31 31 85 31 31 31 31 31 31 31 31 31 31 31 31 31 31 31 31 31 31 31 31 31 31 31 31 31 32 31 31 31 31 31 31 31 31 31 31 31 31 31 31 31 31 31 31 31 31 31 31 31 31 31 31 31 31 31 31 31 31 31 31 31 31 31 32 31 31 31 31 31 31 31 32 32 32 31 31 31 31 31 32 32 32 0 31 31 31 32 31 31 31 32 32 31 31 31 31 32 31 31 31 31 31 31 31 31 31 31 31 31 31 31 31 32 32 32 31 32 32 32 32 32 32 32 32 32 32 32 32 32 32 32 32 32 32 32 32 32 32 32 32 32 32 32 32 32 32 32 109 32 32 32 32 32 32 32 32 32 32 32 32 33 32 32 32 32 32 32 32 32 32 32 32 32 32 32 32 32 32 32 32 32 32 32 32 0 0 0 0 0 0 0 0 0 0 0 0 0 0 0 0 0 0 0 0 0 48 48 48 48 49 0 57 57 56 57 57 57 57 57 57 57 57 57 56 57 57 57 57 57 57 57 57 57 57 57 57 57 58 58 59 59 59 59 59 59 59 59 59 54 55 56 57 57 58 58 0 0 0 0 54 54 55 55 55 55 55 55 55 55 55 54 53 53 0 0 45 45 45 0 0 0 0 0 0 39 39 39 40 40 41 42 43 43 43 43 30 31 32 38 39 40 23 23 24 44 45 46 47 29 44 45 45 60 54 54 55 56 57 58 60 61 43 44 44 44 45 45 45 45 45 45 46 0 0 0 0 0 0 0 0 0 0 0 0 0 0 0 0 0 0 83 83 84 84 85 64 65 66 66 67 65 65 66 66 66 88 67 67 67 67 68 68 68 68 68 68 68 68 68 69 69 67 67 66 66 0 0 0 0 0 0 27 27 27 0 0 0 0 0 0 0 0 0 0 0 0 0 0 0 0 0 0 0 0 0 0 0 0 51 14 13 67 68 75 76 55 55 55 55 55 55 55 55 55 55 55 55 55 55 55 55 54 54 54 54 54 54 0 0 0 25 25 25 26 26 26 26 26 26 26 26 26 26 26 26 26 26 26 26 25 26 26 26 26 26 26 26 27 25 25 26 26 26 26 26 26 26 25 25 25 26 26 26 26
    0 0 0 0 0 0 0 0 0 0 0 0 0 0 0 0 0 0 0 0 0 0 0 0 0 0 0 0 0 0 0 0 0 0 0 0 0 0 0 0 0 0 0 0 0 0 0 0 26 26 26 26 26 26 26 26 26 26 26 26 27 27 27 27 27 27 27 27 27 27 27 27 27 27 27 27 27 27 27 27 27 27 27 27 27 27 27 27 27 28 28 28 28 28 28 28 28 28 28 28 28 28 28 28 28 28 28 28 29 29 29 29 29 29 29 29 29 29 29 29 30 30 30 30 30 30 30 30 30 30 30 30 30 30 30 30 30 30 30 31 31 31 31 31 31 31 31 31 31 31 31 31 31 31 31 31 31 31 31 31 31 31 31 31 31 31 31 31 31 31 31 31 32 32 31 31 31 31 31 31 31 31 31 31 31 31 31 31 31 31 31 31 31 31 31 31 31 31 31 31 31 31 31 31 31 31 31 31 31 31 32 32 32 31 31 31 31 32 32 32 31 31 31 31 32 32 32 32 32 0 31 31 26 32 32 32 25 32 37 32 31 31 31 38 31 31 31 31 31 31 31 31 31 31 31 31 32 31 31 32 32 32 32 32 31 32 32 32 32 32 32 32 32 32 32 32 32 32 32 32 32 32 32 32 32 32 32 32 32 32 32 32 32 32 32 32 32 32 32 32 33 32 32 32 32 32 32 32 32 32 32 33 111 32 32 32 32 32 32 32 32 32 32 32 32 32 32 32 32 32 32 0 0 0 0 0 0 0 0 0 0 0 0 0 0 0 0 0 0 0 0 0 49 48 48 48 48 0 0 0 56 56 57 57 57 57 57 57 57 57 56 56 57 57 57 57 57 57 58 58 58 58 57 57 58 59 59 59 59 59 59 59 59 59 59 54 55 56 57 57 58 58 58 58 58 59 54 54 55 55 55 55 55 55 55 55 55 55 53 53 0 0 0 39 39 0 46 55 55 0 0 39 39 39 40 41 42 43 43 43 43 43 35 36 38 38 39 41 23 24 25 44 27 46 47 30 44 45 45 54 54 54 55 56 58 59 60 43 43 44 44 44 45 45 45 45 45 46 0 0 0 0 0 0 0 0 0 0 94 0 0 0 0 0 0 0 0 83 61 57 57 63 64 65 66 65 65 65 65 66 66 88 67 67 67 67 67 67 67 67 67 68 68 68 68 67 66 66 66 66 66 0 0 0 0 0 27 27 27 27 27 0 0 0 0 0 0 0 0 0 0 0 0 0 0 0 0 0 0 0 0 0 0 0 0 15 65 66 67 68 54 55 55 55 55 55 55 55 55 55 55 54 54 54 54 55 54 54 54 54 0 0 0 0 0 26 26 26 26 25 26 26 26 26 26 26 26 26 26 25 26 26 26 26 26 26 25 25 25 26 26 26 26 26 27 26 25 26 0 26 26 26 26 25 25 25 26 26 26 26 26
    0 0 0 0 0 0 0 0 0 0 0 0 0 0 0 0 0 0 0 0 0 0 0 0 0 0 0 0 0 0 0 0 0 0 0 0 0 0 0 0 0 0 0 0 0 0 0 0 0 0 0 0 0 0 26 26 26 26 26 27 27 27 27 27 27 27 27 27 27 27 27 27 27 27 27 27 27 28 26 27 27 27 27 27 27 27 27 27 28 28 28 28 28 28 28 28 28 28 28 28 28 28 28 28 28 28 28 28 29 29 29 29 29 29 29 29 29 29 29 29 30 30 30 30 30 30 30 30 30 30 30 30 30 30 30 30 30 30 30 31 31 31 31 31 31 31 31 31 31 31 31 31 31 31 31 31 31 31 31 31 31 31 31 31 31 31 31 31 31 31 31 31 32 32 31 31 31 31 31 31 31 31 31 31 31 31 31 31 31 31 31 31 31 31 31 31 31 31 31 31 31 31 31 31 31 31 31 31 32 32 32 33 32 32 31 31 32 32 32 32 32 32 32 32 32 32 32 32 32 32 31 32 32 32 32 32 32 32 32 32 32 32 32 38 31 31 32 31 31 31 31 31 31 31 32 32 32 31 32 32 32 32 32 32 32 32 32 32 32 32 32 32 32 32 32 32 32 32 32 32 32 32 32 32 32 32 32 32 32 32 32 32 32 32 32 109 32 32 32 32 33 32 32 32 32 32 32 32 32 32 32 33 38 32 32 32 32 32 32 32 32 32 32 32 32 32 32 32 32 32 32 32 0 0 0 0 0 0 0 0 0 0 0 0 0 0 0 0 0 59 0 0 49 49 48 48 48 0 0 0 56 56 57 57 57 57 57 57 57 57 56 56 57 57 57 57 57 58 58 58 58 58 58 57 58 58 59 59 59 59 59 59 59 59 58 59 59 56 57 58 58 58 58 58 58 0 54 54 55 55 55 55 55 55 55 55 55 55 53 53 0 0 42 0 0 0 0 46 54 0 0 39 39 68 69 41 42 43 43 43 43 34 18 19 20 21 22 23 24 25 26 27 28 29 30 31 50 50 51 54 55 55 55 58 59 60 43 43 44 44 44 45 45 45 45 45 46 0 0 0 0 0 0 0 0 0 0 0 0 0 0 27 27 0 0 0 0 80 61 62 63 64 65 66 65 65 65 65 66 94 67 67 67 67 67 67 67 67 67 67 67 67 68 68 66 66 66 66 0 0 0 0 0 0 27 27 27 27 27 27 0 0 0 0 0 0 0 0 0 0 0 0 0 0 0 0 0 0 0 0 0 0 0 90 0 16 0 0 53 54 55 55 55 55 55 55 55 55 55 55 55 55 54 54 54 54 54 54 54 54 0 0 0 0 88 26 26 26 26 26 26 26 26 26 26 26 26 26 26 25 26 26 26 26 26 25 25 25 26 26 26 26 26 26 27 26 26 26 0 0 26 26 26 25 25 26 26 26 26 25 25
    0 0 0 0 0 0 0 0 0 0 0 0 0 0 0 0 0 0 0 0 0 0 0 0 0 0 0 0 0 0 0 0 0 0 0 0 0 0 0 0 0 0 0 0 0 0 0 0 0 0 0 0 0 0 0 0 0 0 27 27 27 27 27 27 26 26 0 0 0 0 27 27 27 27 27 27 27 27 27 28 27 28 28 27 27 27 27 28 28 28 28 28 28 28 28 28 28 28 28 28 28 28 28 28 28 28 28 28 29 29 29 29 29 29 29 29 29 29 29 29 30 30 30 30 30 30 30 30 30 30 30 30 30 30 30 30 30 30 30 30 30 31 31 31 31 31 31 31 31 31 31 31 31 31 32 31 31 31 31 31 31 31 31 31 31 31 31 31 31 31 31 31 31 32 31 31 31 31 31 31 31 31 31 31 31 31 31 31 32 31 31 31 31 31 31 31 31 31 31 31 31 31 31 31 31 31 31 31 31 31 32 31 31 31 32 31 32 0 0 31 31 32 32 32 32 32 32 32 32 32 32 32 32 32 32 32 32 32 32 32 32 32 32 32 32 31 32 32 32 32 32 31 31 32 31 32 32 32 32 32 32 32 31 32 32 32 32 32 32 32 32 32 32 32 32 32 32 32 32 32 32 32 32 32 32 32 32 32 32 32 32 32 32 32 32 32 109 109 32 32 32 32 32 32 32 32 32 32 32 32 32 98 38 32 32 32 32 32 32 32 32 32 32 32 32 32 32 32 32 33 32 32 0 0 0 0 0 0 0 0 0 0 0 0 0 0 0 0 0 0 0 0 50 49 49 48 48 49 0 0 56 56 57 57 57 57 57 57 57 57 56 56 57 57 57 57 58 58 58 57 58 58 58 58 58 58 58 58 59 59 59 59 59 59 58 59 60 61 57 58 59 59 58 53 53 54 54 54 54 55 55 55 55 55 55 55 55 55 53 53 0 0 0 53 0 0 0 0 0 0 40 39 68 68 41 42 0 0 43 43 43 18 19 20 21 22 23 24 25 26 27 28 29 30 31 51 51 52 54 55 55 58 58 59 60 42 43 43 44 44 44 45 45 45 45 46 0 0 0 0 0 0 0 0 0 0 0 0 0 0 0 0 0 0 97 83 80 62 62 63 64 65 66 65 66 66 66 66 67 67 67 67 67 67 67 67 67 67 67 67 67 68 68 66 66 66 66 0 0 0 0 35 35 26 27 27 27 27 0 0 74 0 0 0 0 0 0 0 0 0 0 0 0 0 0 0 0 0 0 0 0 0 0 0 90 91 55 56 23 55 55 55 55 55 55 55 55 55 55 55 55 55 55 55 55 54 54 54 0 0 0 0 0 20 26 26 26 26 26 26 26 26 26 26 26 26 26 26 26 25 26 26 26 26 26 25 25 25 25 26 26 26 26 26 26 26 26 26 0 0 26 58 63 25 25 26 26 26 26 25 25
    0 0 0 0 0 0 0 0 0 0 0 0 0 0 0 0 0 0 0 0 0 0 0 0 0 0 0 0 0 0 0 0 0 0 0 0 0 0 0 0 0 0 0 0 0 0 0 0 0 0 0 0 0 0 0 0 0 0 0 0 0 0 0 0 0 0 0 0 0 0 0 27 27 27 27 27 27 27 28 28 27 30 28 0 27 27 0 0 30 28 28 28 28 28 28 28 28 28 28 28 28 28 28 28 28 28 28 28 29 29 29 29 29 29 29 29 29 29 29 29 29 30 30 30 30 30 30 30 30 30 30 30 30 30 30 30 30 30 30 30 30 31 31 31 31 31 31 31 31 31 31 31 31 31 31 31 31 31 31 31 31 31 31 31 31 31 31 31 31 31 31 31 31 31 31 31 31 31 31 31 31 31 31 31 31 31 31 31 32 31 31 31 31 32 32 32 31 31 31 31 31 31 31 32 31 31 31 31 31 31 31 31 32 32 34 31 0 0 0 31 32 32 32 32 32 32 32 32 32 32 32 32 32 32 32 32 32 32 32 32 32 32 32 32 32 31 32 32 32 32 32 32 32 31 31 32 32 32 32 32 31 31 31 32 32 32 32 32 32 32 32 32 32 32 32 32 32 32 32 32 32 32 32 32 32 32 32 32 32 32 32 32 32 32 32 32 32 32 32 32 32 32 32 32 32 33 33 32 32 33 32 32 96 33 105 32 33 32 32 32 32 32 32 32 32 32 32 32 32 32 32 32 0 0 0 0 0 0 0 0 0 0 0 0 0 0 0 0 0 0 0 0 0 49 49 48 48 49 0 0 55 56 57 57 57 57 57 57 57 57 56 56 56 57 57 57 58 58 58 57 57 57 58 58 58 58 58 58 58 58 58 58 58 59 59 59 60 61 62 63 59 60 61 53 53 54 54 54 54 55 55 55 55 55 55 55 55 55 53 53 0 0 0 53 53 0 0 0 0 0 40 40 68 68 42 43 43 43 43 43 18 19 20 21 22 23 23 24 25 26 28 28 29 31 32 51 52 53 54 55 56 39 40 41 42 43 43 44 44 44 45 45 45 45 46 88 89 0 0 0 0 0 0 0 0 0 25 0 0 0 0 0 0 96 82 83 84 63 64 64 65 65 65 66 66 89 67 67 67 67 67 67 67 67 67 67 67 67 67 67 67 68 66 66 66 65 0 0 0 0 34 27 27 27 27 27 27 27 0 0 0 0 0 0 0 0 0 0 0 0 0 0 0 0 0 0 0 0 0 0 0 0 0 0 20 54 55 56 23 55 55 55 55 55 55 55 55 55 55 55 55 55 55 55 55 54 54 0 0 0 0 0 26 26 26 26 26 26 26 26 26 26 26 26 26 26 26 26 26 26 25 26 26 26 26 26 26 25 25 25 26 26 27 25 26 26 26 26 26 0 26 26 26 25 25 25 26 26 26 26 25
    0 0 0 0 0 0 0 0 0 0 0 0 0 0 0 0 0 0 0 0 0 0 0 0 0 0 0 0 0 0 0 0 0 0 0 0 0 0 0 0 0 0 0 0 0 0 0 0 0 0 0 0 0 0 0 0 0 54 0 0 0 0 0 0 0 0 0 0 0 0 0 0 0 0 0 27 27 27 27 27 27 28 28 28 0 0 0 0 0 28 28 28 28 28 28 28 28 28 28 28 28 28 28 28 28 28 28 28 29 29 29 29 29 29 29 29 29 29 29 29 29 29 30 30 30 30 30 30 30 30 30 30 30 30 30 30 30 30 30 30 30 31 31 31 90 31 31 31 31 31 31 31 31 31 31 31 31 31 31 31 31 32 31 31 31 31 31 31 31 32 32 31 31 31 31 32 32 32 32 31 31 31 31 31 31 31 31 31 31 31 31 31 31 31 31 32 31 31 31 31 31 31 32 31 31 31 31 31 31 31 32 32 32 32 32 32 0 0 0 32 31 32 32 32 32 32 32 32 32 32 32 32 32 32 32 32 32 32 32 32 32 32 32 32 32 31 31 32 32 32 32 32 32 31 32 32 32 32 32 31 31 31 32 32 32 32 32 32 32 32 32 32 32 32 32 32 32 32 32 32 32 32 32 32 32 31 31 32 32 32 32 32 32 32 32 32 32 32 32 32 32 32 32 33 33 33 33 33 33 33 32 32 33 33 33 33 33 32 32 32 33 33 32 32 32 32 32 32 32 32 32 32 33 0 0 0 0 0 0 0 0 0 0 0 0 0 0 0 0 0 0 0 0 0 72 48 48 48 0 0 0 56 57 57 57 57 57 57 57 57 57 56 56 57 57 57 57 58 58 57 57 57 57 58 58 58 58 58 58 58 58 59 59 59 59 59 60 61 62 61 61 60 62 53 53 54 54 54 54 55 55 55 55 55 55 55 55 55 53 53 0 0 0 0 0 0 0 40 40 40 40 67 67 68 43 43 43 43 43 43 18 19 20 21 22 23 24 25 26 27 28 29 30 31 50 50 52 53 37 38 39 40 40 41 42 43 43 44 44 45 45 45 45 46 0 0 0 0 0 0 0 0 0 0 0 0 0 0 0 0 0 60 96 81 82 84 63 64 65 65 65 65 65 66 84 83 67 67 67 67 67 67 67 67 67 67 67 67 67 67 66 66 65 65 0 0 0 0 0 35 27 27 27 27 27 0 0 0 0 0 0 0 0 0 0 0 0 0 0 0 0 0 0 0 0 0 0 0 0 0 0 26 26 26 26 27 55 55 55 55 55 55 55 55 55 55 55 54 55 55 55 55 55 55 54 54 54 0 0 0 0 19 26 26 26 26 26 26 26 26 26 26 26 26 26 26 26 26 26 26 25 26 26 26 26 26 26 26 26 26 26 26 25 25 26 26 26 26 26 58 26 26 26 26 25 25 25 26 26 26 26
    0 0 0 0 0 0 0 0 0 0 0 0 0 0 0 0 0 0 0 0 0 0 0 0 0 0 0 0 0 0 0 0 0 0 0 0 0 0 0 0 0 0 0 0 0 0 0 32 33 34 0 45 46 0 0 0 0 54 54 54 54 54 55 56 52 53 53 53 53 53 0 0 0 0 0 0 0 0 0 0 0 0 28 0 0 0 0 0 0 0 30 28 28 28 28 28 28 28 28 28 28 28 28 28 28 28 28 28 28 29 29 29 29 29 29 29 29 29 29 29 29 29 30 30 30 30 30 30 30 30 30 30 30 30 30 30 30 30 30 30 30 31 31 31 31 31 31 31 31 31 31 31 31 31 31 31 31 31 31 31 31 32 32 32 32 32 32 31 32 32 32 31 31 31 31 32 32 32 32 32 32 31 31 31 31 31 31 31 31 31 31 31 31 31 31 31 31 31 31 31 31 31 31 31 31 31 31 31 31 31 31 32 32 32 32 32 32 32 32 32 32 32 32 32 32 32 32 32 32 32 32 32 32 32 32 32 32 32 32 32 32 32 32 32 32 31 32 32 32 32 32 32 32 32 32 32 32 32 32 31 31 31 32 32 32 32 32 32 32 32 32 32 32 32 32 32 32 32 32 32 32 32 32 32 31 32 32 32 32 32 32 32 32 32 32 32 32 32 32 32 32 32 33 33 33 33 33 33 33 33 33 33 33 33 33 33 33 32 32 33 33 33 32 32 32 32 32 32 32 32 32 33 0 0 0 0 0 0 0 0 0 0 0 0 0 0 0 0 0 0 0 0 0 0 0 73 48 48 0 0 0 56 57 57 57 57 57 57 57 57 57 56 56 56 57 57 57 57 58 57 57 57 57 58 58 58 58 58 58 58 58 59 59 59 59 59 59 60 60 60 61 61 65 53 53 53 54 55 54 55 55 55 55 55 55 55 55 83 53 0 0 0 0 0 0 0 0 0 40 40 40 67 67 68 43 43 43 43 43 18 19 20 21 22 23 24 25 26 27 28 29 30 31 32 50 50 50 38 38 39 39 40 41 42 42 43 44 44 45 45 45 45 46 88 0 0 0 0 0 0 0 0 0 0 0 0 0 0 0 0 60 81 81 82 84 85 64 65 65 65 65 65 65 83 82 67 67 67 67 67 67 67 67 67 67 67 67 67 66 66 66 65 65 0 0 0 0 0 27 27 27 27 27 27 0 0 0 0 0 0 76 76 0 0 0 0 0 0 0 0 0 0 0 0 0 0 0 0 0 0 26 26 0 83 20 55 55 55 55 55 55 55 55 55 55 55 53 54 54 55 54 54 54 54 54 54 54 0 0 82 25 19 26 26 26 26 26 26 26 26 26 26 25 26 26 26 26 26 26 26 25 26 26 26 26 26 26 26 26 26 26 26 26 25 25 26 26 26 26 26 58 26 26 26 26 25 25 25 25 26 26
    0 0 0 0 0 0 0 0 0 0 0 0 0 0 0 0 0 0 0 0 0 0 0 0 0 0 0 0 0 0 0 0 0 0 0 0 0 0 0 0 0 0 0 0 0 0 0 0 0 0 0 0 0 0 0 0 0 54 54 54 54 54 54 54 55 55 55 55 55 56 57 53 53 54 50 51 51 51 52 53 54 0 0 0 0 0 0 0 0 0 0 0 0 28 28 28 28 28 28 28 28 28 28 28 28 28 42 43 28 28 28 29 29 29 29 29 29 29 29 29 29 29 29 29 30 30 30 30 30 30 30 30 30 30 30 30 30 30 30 30 30 31 31 31 31 31 31 31 31 31 31 31 31 31 31 31 31 31 31 31 31 32 32 32 32 32 32 32 32 32 32 31 31 31 31 32 32 32 32 32 32 32 31 31 31 31 32 31 31 31 31 31 31 31 31 31 32 32 31 31 31 31 31 31 31 31 32 32 32 31 32 32 32 32 32 32 32 32 32 32 32 32 32 32 32 32 32 32 32 32 32 32 32 32 32 32 32 32 32 32 32 32 32 32 32 32 32 32 32 32 32 32 32 32 32 32 32 32 32 32 31 31 32 32 32 32 32 32 32 32 32 32 32 32 32 32 32 32 32 32 32 32 32 32 31 32 32 32 32 32 32 32 32 32 32 32 32 32 32 32 32 33 33 33 33 33 33 33 33 33 33 33 33 33 33 33 33 33 32 33 33 33 33 33 32 32 32 32 32 32 32 0 0 0 0 0 0 0 0 0 0 0 0 0 0 0 0 0 0 0 50 50 50 0 0 0 47 48 49 0 0 56 56 57 57 57 57 57 57 57 57 56 56 56 57 57 57 57 57 57 57 57 58 58 58 58 58 58 58 58 58 59 59 59 59 59 59 59 60 60 60 61 64 53 53 53 54 55 55 55 55 55 55 55 55 55 55 55 53 29 0 0 0 0 0 0 0 0 40 40 40 66 67 43 43 43 43 43 18 19 20 21 22 23 24 25 25 26 28 29 29 30 31 33 46 50 39 38 38 39 40 41 41 42 43 43 44 44 45 45 45 46 0 0 0 0 0 0 0 0 0 23 24 0 0 0 0 0 0 60 80 80 81 83 84 64 65 65 65 65 65 65 81 66 66 0 67 67 67 67 67 67 67 67 67 67 66 66 66 66 66 65 65 0 0 0 27 27 27 27 27 27 27 27 0 0 0 0 0 0 76 76 0 0 0 0 0 0 0 0 0 0 0 0 0 0 0 0 25 25 26 27 4 5 55 55 55 55 55 55 55 55 55 55 55 55 55 55 54 54 54 54 54 54 54 0 0 0 27 26 26 19 26 26 26 26 26 26 26 26 26 26 26 25 26 26 26 26 26 26 26 26 26 26 26 26 27 27 26 26 26 26 26 26 25 0 26 26 26 26 26 26 26 26 26 26 26 25 25 26 26
    0 0 0 0 0 0 0 0 0 0 0 0 0 0 0 0 0 0 0 0 0 0 0 0 0 0 0 0 0 0 0 0 0 0 0 0 0 0 0 0 0 0 0 0 0 0 0 0 0 0 0 0 0 0 0 0 0 54 54 54 54 54 54 54 54 54 54 55 55 56 57 59 60 61 50 51 52 52 52 53 53 53 53 0 0 53 53 52 52 0 0 0 0 0 0 0 0 27 28 28 28 28 28 28 28 28 42 0 0 0 28 29 29 29 29 29 29 29 29 29 29 29 29 29 30 30 30 30 30 30 30 30 30 30 30 30 30 30 30 30 30 31 58 31 31 31 31 31 31 31 31 31 31 31 31 31 31 31 31 31 32 32 32 32 32 32 32 32 32 32 32 32 31 32 31 31 32 32 32 32 32 32 32 31 31 32 32 32 31 31 31 31 32 32 32 32 32 32 31 31 31 31 31 32 32 31 32 32 32 32 32 32 32 32 32 32 32 32 32 32 32 32 32 32 32 32 32 32 32 32 32 32 32 32 32 32 32 32 32 32 32 32 32 32 32 32 32 32 32 32 32 32 32 32 32 32 32 32 32 32 31 31 32 32 32 32 32 32 32 32 32 32 32 32 32 32 32 32 32 32 32 32 32 32 32 32 32 32 32 32 32 32 32 32 32 32 33 33 32 32 33 33 33 33 33 33 33 33 33 33 33 33 33 33 33 33 33 33 32 33 33 33 33 33 32 32 32 32 32 32 32 0 0 0 0 0 0 0 0 0 0 0 0 0 0 0 0 0 0 0 0 0 50 0 0 0 47 47 48 0 0 56 56 57 57 57 57 56 57 57 57 56 56 57 57 57 57 57 57 57 57 57 58 58 58 58 58 58 58 58 58 59 59 58 58 58 58 59 60 60 60 61 39 53 53 53 54 55 55 55 55 55 55 55 55 55 55 82 53 53 0 0 0 0 0 0 0 0 40 40 40 41 42 43 43 43 43 43 31 20 21 22 23 24 25 25 26 27 28 29 29 30 32 46 46 50 39 39 39 40 41 41 42 42 43 44 44 45 45 45 46 0 0 0 0 0 0 0 0 0 22 23 23 24 24 0 0 0 60 60 57 81 82 63 64 65 64 65 65 65 65 81 66 66 66 66 66 67 67 67 67 67 67 67 65 65 65 66 66 66 66 0 0 0 0 27 27 27 27 27 27 27 0 0 0 0 42 0 0 0 0 0 0 0 0 0 0 0 0 0 0 0 0 0 0 0 0 72 73 74 75 76 18 19 55 55 55 55 55 55 55 55 55 55 55 55 55 55 54 54 54 54 53 0 0 0 0 27 26 26 26 19 26 26 26 26 26 26 26 26 26 26 26 25 26 26 26 26 26 26 26 26 26 26 26 26 27 28 29 26 26 26 26 26 25 25 26 26 26 26 26 26 26 26 26 26 26 25 25 26 26
    0 0 0 0 0 0 0 0 0 0 0 0 0 0 0 0 0 0 0 0 0 0 0 0 0 0 0 0 0 0 0 0 0 0 0 0 0 0 0 0 0 0 0 0 0 0 0 0 0 0 0 0 0 0 0 0 53 54 55 55 55 55 54 54 54 54 54 54 54 54 54 55 56 56 56 55 52 52 49 50 51 52 52 53 53 53 53 53 52 52 0 0 0 0 0 0 0 0 0 0 0 0 0 0 0 0 0 0 0 0 29 28 29 29 29 29 29 29 29 29 29 29 29 29 30 30 30 30 30 30 30 30 30 30 30 30 30 30 30 30 30 31 31 31 31 31 31 31 31 31 31 31 31 31 32 32 31 31 31 32 32 32 32 32 32 32 32 32 32 32 32 32 32 32 32 32 31 32 32 32 32 32 32 31 32 32 32 32 31 31 31 32 32 32 32 32 32 32 32 32 32 32 32 32 32 32 32 32 32 32 32 32 32 32 32 32 32 32 32 32 32 32 32 32 32 32 32 32 32 32 32 32 32 32 32 32 32 32 32 32 32 32 32 32 32 32 32 32 32 32 32 32 32 32 32 32 32 32 32 32 32 32 32 32 32 32 32 32 32 32 32 32 32 32 32 32 32 32 32 32 32 32 32 32 32 32 32 32 32 103 32 103 32 32 32 32 32 33 33 34 33 33 33 33 33 33 32 33 33 33 33 33 33 33 32 33 33 33 33 33 33 33 33 33 32 32 32 32 32 32 32 33 0 0 0 0 0 0 0 0 0 0 0 0 0 0 0 0 0 0 0 0 0 0 0 46 47 47 48 0 56 56 56 56 57 57 57 56 57 57 57 57 57 57 57 57 57 57 57 57 57 57 58 58 58 58 58 58 58 58 58 58 58 58 58 58 59 59 60 61 60 61 39 53 53 53 54 55 55 55 55 55 55 55 55 55 55 53 53 53 0 0 0 38 0 0 0 0 40 39 40 41 42 43 43 43 43 43 19 21 22 23 24 24 25 26 27 28 29 30 30 31 33 46 47 38 38 39 40 41 41 42 42 43 43 44 45 45 45 46 0 0 0 0 0 0 0 0 0 0 21 22 22 23 17 0 60 60 60 57 58 62 63 64 65 64 65 65 65 88 82 66 66 66 66 66 66 66 66 66 66 66 67 65 65 65 66 66 66 66 0 0 0 27 27 27 27 27 27 27 27 0 0 68 68 32 0 0 0 0 0 0 0 0 0 0 0 0 0 0 0 0 0 0 0 0 12 65 66 67 68 17 18 55 55 55 55 55 55 55 55 55 55 55 55 54 55 55 54 54 54 53 0 0 0 0 27 27 26 26 19 26 26 26 26 26 26 26 26 26 26 26 25 25 26 26 26 26 26 26 26 26 26 26 26 26 27 28 29 26 26 26 26 26 26 26 25 25 26 26 26 26 26 26 26 26 25 25 26 26 26
    0 0 0 0 0 0 0 0 0 0 0 0 0 0 0 0 0 0 0 0 0 0 0 0 0 0 0 0 0 0 0 0 0 0 0 0 0 0 0 0 36 37 38 39 40 41 42 42 43 44 44 44 0 50 51 52 53 54 55 55 55 55 55 55 54 54 54 54 54 54 54 54 54 54 54 55 55 54 60 61 63 53 53 55 56 54 61 62 63 64 64 62 63 52 0 0 0 0 0 51 52 53 0 0 0 52 52 52 52 0 0 41 28 29 29 29 29 29 29 29 29 29 29 29 29 30 30 30 30 30 30 30 30 30 30 30 30 30 30 30 30 31 31 31 31 31 31 31 31 31 31 31 31 31 31 31 31 32 32 32 32 32 32 32 32 32 32 32 32 32 32 32 32 32 32 32 32 32 32 32 32 32 32 31 32 32 32 32 31 31 31 31 32 32 32 32 32 32 32 32 32 32 32 32 32 32 32 32 32 32 32 32 32 32 32 32 32 32 32 32 32 32 32 32 32 32 32 32 32 32 32 32 32 32 32 32 32 32 32 32 32 32 32 32 32 32 32 32 32 32 32 32 32 32 32 32 32 32 32 32 32 32 32 32 32 32 32 32 32 32 32 32 32 32 32 32 32 32 32 32 32 32 32 32 32 32 32 32 32 32 32 32 32 32 32 32 32 32 32 33 33 33 33 33 33 33 33 33 33 33 33 33 33 33 33 32 33 33 33 33 33 33 33 33 33 32 32 32 32 32 32 32 32 0 0 0 0 0 0 0 0 0 0 0 0 0 0 0 0 0 0 0 0 0 0 45 47 47 0 0 0 56 56 56 56 57 57 56 57 57 57 57 56 57 57 57 57 57 57 57 57 57 57 58 58 57 58 58 58 58 58 58 58 58 58 58 59 59 60 61 60 60 38 53 53 53 54 55 55 55 55 55 55 55 55 54 54 53 53 53 0 0 0 38 0 0 0 39 39 39 40 41 42 43 43 43 43 43 20 21 23 24 24 25 26 27 28 29 30 31 32 32 34 46 51 38 39 39 40 41 42 42 43 43 44 44 45 45 46 0 0 0 0 0 0 0 0 0 0 0 0 0 16 0 0 60 60 60 56 57 62 63 64 64 64 64 64 65 87 82 66 66 66 66 66 66 66 66 66 66 66 66 65 65 65 65 66 0 0 0 0 27 27 27 27 27 27 27 27 27 27 0 36 68 68 0 0 69 0 0 0 0 0 0 0 0 0 0 0 0 0 0 0 0 0 0 63 64 0 54 55 54 55 55 55 55 55 55 55 55 55 55 55 55 54 55 55 55 54 54 53 0 0 0 0 26 10 11 26 26 26 26 26 26 26 26 26 26 26 33 26 26 25 25 26 26 26 26 26 26 26 26 26 26 26 26 26 26 26 26 26 26 26 26 26 26 25 25 25 26 26 26 26 26 26 26 25 25 26 26 26
    0 0 0 0 0 0 0 0 0 0 0 0 0 0 0 0 0 0 0 0 0 0 0 0 0 0 0 0 0 0 0 0 0 0 0 0 0 0 0 0 0 0 37 38 40 42 43 44 45 43 44 45 49 50 51 52 53 53 54 54 55 55 55 55 55 54 54 54 54 54 54 54 54 54 54 54 54 54 54 54 54 54 55 56 56 57 59 60 61 62 62 63 65 50 50 51 51 51 52 52 53 53 54 0 0 52 52 52 52 52 52 52 0 0 0 29 29 29 29 29 29 29 29 29 29 29 29 0 0 0 30 30 30 30 30 30 30 30 30 30 30 31 31 31 31 31 31 31 31 31 31 31 31 31 31 31 31 32 32 32 32 32 32 32 32 32 32 32 32 32 32 32 32 32 32 32 32 32 32 32 32 32 32 31 31 31 31 31 31 31 31 32 32 31 32 32 32 32 32 32 32 32 32 32 32 32 32 32 32 32 32 31 32 32 32 32 32 32 32 32 32 32 32 32 32 32 32 32 32 32 32 32 32 32 32 32 32 32 32 32 32 32 32 32 32 32 32 32 32 32 32 32 32 32 32 32 32 32 32 32 32 32 32 32 32 32 32 32 32 32 32 32 32 32 32 32 32 32 32 32 32 32 32 32 32 32 32 32 32 32 32 32 32 32 32 32 32 33 33 33 33 33 33 33 33 33 33 33 33 33 33 33 33 33 33 33 33 33 33 33 33 33 33 33 33 33 33 33 33 32 32 32 32 32 33 0 0 0 0 0 0 0 0 0 0 0 0 0 0 0 0 0 0 0 0 0 46 47 0 0 0 55 56 56 56 56 57 56 56 57 57 57 56 57 57 57 57 57 57 57 57 57 57 57 57 57 57 58 58 58 58 58 58 58 58 58 59 59 60 59 60 61 39 53 53 53 54 54 55 55 55 55 55 55 55 54 54 53 54 0 0 0 37 0 0 0 39 39 39 40 40 41 42 43 44 43 0 43 21 37 24 24 25 25 26 27 28 29 30 31 32 33 34 36 38 38 39 40 41 42 42 43 43 43 44 45 45 46 0 0 0 0 0 0 0 0 111 0 0 0 0 0 0 0 60 60 60 56 78 62 63 63 64 64 64 64 65 87 66 66 66 66 66 66 66 66 66 65 65 65 65 65 65 64 64 0 0 0 0 0 27 27 27 27 27 27 27 28 29 0 0 0 0 0 0 0 0 69 70 0 0 0 0 0 0 0 0 0 0 0 0 0 0 0 0 0 62 0 54 54 54 55 55 55 55 55 55 55 55 55 55 55 55 55 54 55 55 55 54 53 0 0 0 0 26 26 26 26 26 26 26 26 20 20 26 26 26 33 33 33 26 26 26 26 26 26 26 26 26 26 26 26 26 26 26 26 26 26 26 26 26 26 26 26 26 26 26 26 26 26 26 26 26 26 26 26 25 25 26 26 27
    0 0 0 0 0 0 0 0 0 0 0 0 0 0 0 0 0 0 0 0 0 0 0 0 0 0 0 0 0 0 0 0 0 0 0 0 0 0 0 0 0 0 0 0 37 38 43 44 45 46 47 48 49 50 51 52 52 52 52 53 54 55 55 55 55 55 54 54 54 54 54 54 54 54 54 54 54 55 55 54 54 32 33 55 56 57 58 39 40 41 42 43 44 44 45 46 46 47 49 50 51 51 52 52 52 53 53 53 52 52 52 52 52 53 0 0 0 0 0 0 51 29 29 29 29 29 0 0 0 0 30 30 30 30 30 30 30 30 30 30 30 30 30 31 31 31 31 31 31 31 31 31 31 31 31 31 31 32 32 32 32 32 32 32 32 32 32 32 32 32 32 32 32 32 32 32 32 32 32 32 32 32 32 31 31 31 31 31 31 31 31 32 31 32 32 32 32 32 32 32 32 32 32 32 32 32 32 32 32 32 32 31 32 32 32 32 32 32 32 32 32 32 32 32 32 32 32 32 32 32 32 32 32 32 32 32 32 32 32 32 32 32 32 32 32 32 32 32 32 32 32 32 32 32 32 32 32 32 32 32 32 32 32 32 32 32 32 32 32 32 32 32 32 32 32 32 32 32 32 32 32 32 32 32 32 32 32 32 32 32 32 32 32 32 32 32 32 33 33 33 33 33 33 33 33 33 33 33 33 33 33 33 33 33 33 33 33 33 33 33 33 33 32 33 33 33 33 33 33 32 32 32 32 32 33 33 0 0 0 0 0 0 0 0 0 0 0 0 0 0 0 0 0 0 0 0 47 47 0 0 0 55 55 56 56 56 56 56 56 57 57 57 56 56 57 57 57 57 57 57 57 56 57 57 57 57 57 58 58 58 58 58 58 58 58 58 58 59 59 59 59 60 57 53 53 53 54 54 54 57 55 55 55 55 55 54 54 80 54 0 0 0 0 0 0 0 0 39 39 40 41 42 43 43 44 0 0 19 23 37 25 26 26 26 27 28 29 30 30 31 32 32 45 46 46 38 39 40 41 42 42 43 43 44 44 45 46 0 0 0 0 0 0 0 0 0 111 0 19 0 15 0 0 0 60 60 60 61 62 62 63 63 64 64 65 65 66 66 66 66 66 66 66 66 66 66 66 65 65 65 64 65 64 0 0 0 0 0 27 27 27 27 27 27 27 27 27 0 0 0 0 0 0 0 1 68 69 0 0 0 0 0 0 0 0 0 0 0 0 0 0 0 58 59 93 94 0 62 54 54 55 55 55 55 55 55 55 55 55 55 55 55 55 55 55 55 55 54 54 0 0 0 0 26 26 26 26 26 26 26 26 26 20 20 33 33 33 33 27 26 26 26 26 26 26 26 26 26 26 26 26 26 26 26 26 25 26 26 26 27 26 26 26 26 26 26 26 26 26 26 26 26 26 26 26 26 25 25 26 26 26
    0 0 0 0 0 0 0 0 0 0 0 0 0 0 0 0 0 0 0 0 0 0 0 0 0 0 0 0 0 0 0 0 0 0 0 0 0 0 0 0 0 0 0 0 0 0 0 0 0 41 41 48 49 50 51 51 51 51 52 52 53 54 54 55 55 55 55 54 54 54 54 54 54 54 54 54 54 54 55 54 54 54 54 54 54 55 56 57 58 41 42 43 43 43 47 47 49 50 51 52 52 53 54 53 75 53 53 53 54 54 52 68 52 52 52 0 0 0 0 51 51 52 0 0 0 0 0 0 0 0 0 30 30 30 30 30 30 30 30 30 30 30 30 30 31 31 31 31 31 31 31 31 31 31 31 31 32 32 32 32 32 32 32 32 32 32 32 32 32 32 32 32 32 32 32 32 32 32 32 32 32 32 31 31 32 32 32 31 32 32 32 32 32 32 32 32 32 32 32 32 32 32 32 32 32 32 32 32 32 32 32 32 32 32 32 32 32 32 32 32 32 32 32 32 32 32 32 32 32 32 32 32 32 32 32 32 32 32 32 32 32 32 32 32 32 32 32 32 32 32 32 32 32 32 32 32 32 32 32 32 32 32 32 32 32 32 32 32 32 32 32 32 32 32 32 32 32 32 32 32 32 32 32 32 32 32 32 32 32 32 32 32 32 32 32 32 32 33 33 33 33 33 33 33 33 33 33 33 33 33 33 33 33 33 33 33 33 33 33 33 33 33 33 32 33 33 33 33 33 32 32 32 32 32 32 33 0 0 0 0 0 0 0 0 0 0 0 0 0 0 0 0 0 0 0 0 0 48 48 0 0 55 55 56 56 56 56 56 56 57 57 57 57 56 56 57 57 56 57 57 57 57 57 57 57 57 57 58 58 58 58 58 58 58 58 58 58 58 59 59 59 60 57 53 53 53 53 54 54 57 55 55 55 55 55 54 55 79 54 0 0 0 0 0 0 0 40 40 40 40 41 42 43 44 0 0 0 22 37 37 37 38 27 28 28 29 30 31 31 31 45 45 45 46 46 47 39 40 41 42 42 43 43 44 45 46 0 0 0 0 0 0 0 0 0 0 27 27 27 27 0 0 60 59 58 60 61 62 64 64 64 64 65 65 66 66 66 66 66 66 66 66 66 66 66 66 65 65 65 64 65 65 65 0 0 0 0 27 27 27 27 27 27 27 27 27 0 0 0 0 0 0 0 0 0 0 0 0 0 0 0 78 78 0 0 0 0 0 0 0 0 0 91 91 92 94 61 62 55 55 55 55 55 55 55 55 55 55 55 55 55 55 55 55 55 55 54 54 0 0 0 0 26 26 26 26 26 26 26 26 26 26 26 26 26 26 26 26 26 26 26 26 26 26 26 26 26 25 25 26 26 26 26 26 26 25 26 26 26 26 26 26 26 26 26 26 26 26 26 26 26 26 26 26 26 26 25 26 26 26 26
    0 0 0 0 0 0 0 0 0 0 0 0 0 0 0 0 0 0 0 0 0 0 0 0 0 0 0 0 0 0 0 0 0 0 0 0 0 0 0 0 0 0 0 0 0 0 0 0 0 0 0 0 43 44 45 50 51 51 51 52 53 54 54 55 55 55 55 54 54 52 53 53 54 54 54 54 55 55 55 55 54 54 54 54 54 54 55 55 55 56 56 57 42 43 43 43 48 49 67 67 68 69 70 52 53 54 54 55 61 63 64 55 56 67 64 52 52 53 53 51 51 51 52 53 53 53 52 52 52 0 0 0 29 30 30 30 30 30 30 30 30 30 30 30 0 0 31 31 31 31 31 31 31 31 31 31 32 32 32 32 32 32 32 32 32 32 32 32 32 32 32 32 32 32 32 32 32 32 32 32 32 32 32 32 32 32 32 32 32 32 32 32 32 32 32 32 32 32 32 32 32 32 32 32 32 32 32 32 32 32 32 32 32 32 32 32 32 32 32 32 32 32 32 32 32 32 32 32 32 32 32 32 32 32 32 32 32 32 32 32 32 32 32 32 32 32 32 32 32 32 32 32 32 32 32 32 32 32 32 32 32 32 32 32 32 32 32 32 32 32 32 32 32 32 32 32 32 32 32 32 32 32 32 32 32 32 32 32 32 32 32 0 0 32 32 33 33 33 33 33 33 33 33 33 33 33 33 33 33 33 33 33 33 33 33 33 33 33 33 33 33 33 33 33 32 33 33 33 33 32 32 32 32 32 32 32 0 0 0 0 0 0 0 0 0 0 0 0 0 0 0 0 0 0 0 0 0 48 48 48 0 0 0 55 56 56 56 56 56 57 57 57 57 56 56 57 57 57 57 57 57 57 57 57 58 58 57 57 58 58 58 58 58 58 58 58 58 59 59 59 60 60 57 57 0 53 53 54 54 57 55 55 55 55 55 55 55 56 54 0 0 0 0 0 0 0 40 40 40 41 0 0 43 44 0 0 28 27 28 29 29 29 29 29 30 31 32 33 32 45 45 45 46 46 46 39 40 41 42 42 42 43 44 45 46 0 0 0 6 6 0 0 0 0 0 0 28 27 27 0 0 60 60 60 60 61 63 63 64 64 64 64 65 66 66 66 66 66 66 66 66 66 66 65 65 65 65 65 64 65 65 65 0 0 0 0 27 27 27 27 27 27 27 27 27 27 0 0 0 0 0 1 1 0 0 0 0 0 0 75 76 77 0 0 0 0 20 21 0 0 0 0 91 91 92 94 60 55 55 55 55 55 55 55 55 55 55 55 55 55 55 55 55 55 54 54 54 0 0 0 0 26 26 26 26 26 26 26 27 28 26 26 26 26 26 26 26 26 26 26 26 26 26 26 26 26 26 26 25 25 26 26 26 26 26 26 26 26 26 26 26 26 26 26 26 26 26 26 26 26 26 26 26 26 26 26 26 26 26 26 26
    0 0 0 0 0 0 0 0 0 0 0 0 0 0 0 0 0 0 0 0 0 0 0 0 0 0 0 0 0 0 0 0 0 0 0 0 0 0 0 0 0 0 0 0 0 0 0 0 0 0 0 0 0 0 0 0 52 52 52 52 53 54 54 55 56 56 56 54 51 52 53 53 53 54 54 55 55 55 55 55 55 54 54 54 54 54 54 55 55 55 55 55 55 56 56 55 52 49 48 49 50 52 68 69 70 70 71 55 56 57 58 58 59 61 64 65 66 67 67 67 51 51 51 52 52 52 52 52 52 52 52 0 0 0 0 30 30 30 30 30 30 0 30 30 0 0 0 31 31 31 31 31 31 31 31 31 31 31 32 32 32 32 32 32 32 32 32 32 32 32 32 32 32 32 32 32 32 32 32 32 32 32 32 32 32 32 32 32 32 32 32 32 32 32 32 32 32 32 32 32 32 32 32 32 32 32 32 32 32 32 32 32 32 32 32 32 32 32 32 32 32 32 32 32 32 32 32 32 32 32 32 32 32 32 32 32 32 32 32 32 32 32 32 32 32 32 32 32 32 32 32 32 32 32 32 32 32 32 32 32 32 32 32 32 32 32 32 32 32 32 32 32 32 32 32 32 32 32 32 32 32 32 32 32 32 32 32 32 32 32 33 0 0 0 32 33 33 33 33 33 33 33 33 33 33 33 33 33 33 33 33 33 33 33 33 33 33 33 33 33 33 33 33 33 33 33 33 33 33 32 32 32 32 32 32 32 33 0 0 0 0 0 0 0 0 0 0 0 0 0 0 0 0 0 0 0 0 48 48 48 0 0 0 55 55 56 56 56 56 57 57 57 57 56 56 57 57 57 57 57 57 57 57 57 58 58 57 57 58 58 58 58 58 58 58 58 58 59 59 59 60 61 62 57 57 0 53 54 54 57 55 55 55 55 55 55 55 56 72 0 0 0 0 0 0 39 40 40 40 0 0 0 44 44 44 44 28 28 29 29 29 29 30 30 31 32 33 34 34 45 45 45 46 46 40 41 41 42 42 42 43 44 45 46 0 0 0 0 0 6 0 0 0 0 0 0 28 27 0 0 0 60 60 60 62 62 63 64 64 64 64 79 65 0 0 66 66 66 66 66 66 66 65 65 65 65 64 64 64 65 0 0 0 0 27 27 27 27 27 27 27 27 27 27 27 27 0 0 0 0 0 2 3 0 0 0 0 0 74 75 0 0 0 0 0 20 0 20 0 0 53 54 90 55 56 56 57 55 55 55 55 55 55 55 55 55 55 54 55 55 55 55 55 54 54 54 0 0 0 0 26 26 26 26 26 26 26 26 26 26 26 26 26 26 26 26 26 26 26 26 26 26 26 26 26 26 26 26 26 26 26 26 26 26 26 26 26 26 26 26 26 27 28 26 26 26 26 26 26 26 26 26 26 26 27 26 26 26 26 26 26
    0 0 0 0 0 0 0 0 0 0 0 0 0 0 0 0 0 0 0 0 0 0 0 0 0 0 0 0 0 0 0 0 0 0 0 0 0 0 0 0 0 0 0 0 0 0 0 0 0 0 0 0 0 0 0 0 0 0 53 54 54 54 54 55 55 56 56 57 58 52 52 53 53 53 54 54 55 55 55 55 55 55 54 54 54 54 54 54 54 54 54 54 54 54 55 55 55 55 55 55 55 29 30 31 54 55 42 43 44 45 65 66 67 68 43 44 52 53 53 54 55 56 51 52 52 53 53 53 54 52 52 52 52 52 0 0 0 0 0 0 0 0 0 0 0 0 0 0 31 31 31 31 31 31 32 32 31 31 31 32 32 32 32 32 32 32 32 32 32 32 32 32 32 32 32 32 32 32 32 32 32 32 32 32 32 32 32 32 32 32 32 32 32 32 32 32 32 32 32 32 32 32 32 32 32 32 32 32 32 32 32 32 32 32 32 32 32 32 32 32 32 32 32 32 32 32 32 32 32 32 32 32 32 32 32 32 32 32 32 32 32 32 76 32 32 32 32 32 32 32 32 32 32 32 32 32 32 32 32 32 32 32 32 32 32 32 32 32 32 32 32 32 32 32 32 32 32 32 66 32 32 32 32 32 32 32 33 32 32 32 33 0 0 0 32 33 33 33 33 33 33 33 33 33 33 33 33 33 33 33 33 33 33 33 33 33 33 33 33 33 33 33 33 33 33 33 33 33 33 32 32 33 32 32 32 32 33 0 0 0 0 0 0 0 0 0 0 0 0 0 0 0 0 0 0 0 0 48 47 47 47 0 0 54 55 56 56 56 56 56 57 57 57 56 56 56 57 57 57 57 57 57 57 57 57 57 57 58 58 58 58 58 58 58 58 58 58 59 59 60 60 61 62 57 57 57 57 57 57 55 55 55 55 55 55 55 55 56 53 0 0 0 0 0 39 39 40 0 0 0 0 0 44 44 44 29 26 29 30 30 31 30 30 31 32 33 34 35 34 45 45 46 46 40 41 41 42 42 43 43 44 45 46 0 0 0 0 0 85 6 0 0 0 0 0 0 0 0 0 60 60 60 61 61 62 63 63 64 64 64 78 65 65 0 0 0 66 66 66 65 66 65 65 65 65 64 64 64 64 0 0 0 0 28 27 27 27 27 27 27 27 27 27 27 27 0 0 0 0 0 0 0 0 0 0 0 72 0 75 0 0 0 1 1 1 1 19 0 0 52 53 53 54 55 55 56 55 55 55 55 55 55 55 55 54 54 54 54 55 54 55 55 55 54 55 0 0 0 0 26 26 26 26 26 26 26 26 26 26 26 26 26 26 26 26 26 26 26 26 26 26 26 26 26 26 26 26 26 77 26 26 26 26 26 26 26 26 26 26 26 27 27 28 26 26 26 26 26 26 26 26 26 26 26 26 26 26 26 26 26 26
    0 0 0 0 0 0 0 0 0 0 0 0 0 0 0 0 0 0 0 0 0 0 0 0 0 0 0 0 0 0 0 0 0 0 0 0 0 0 0 0 0 0 0 0 0 0 0 0 0 0 0 0 0 0 0 0 0 0 0 0 0 0 54 54 55 55 55 55 56 48 50 50 51 52 53 54 54 55 55 55 55 55 54 54 54 54 54 55 54 54 54 54 54 54 55 55 55 55 55 55 55 55 55 55 39 40 41 42 43 45 46 47 48 49 50 51 52 53 54 54 55 56 57 52 53 53 54 54 54 67 52 52 52 52 53 0 0 0 0 0 0 0 0 0 0 0 0 0 0 31 31 31 31 31 32 32 31 31 31 32 32 32 32 32 32 32 32 32 32 32 32 32 32 32 32 32 32 32 32 32 32 32 32 32 32 32 32 32 32 32 32 32 32 32 32 32 32 32 32 32 32 32 32 32 32 32 32 32 32 32 32 32 32 32 32 32 32 32 32 32 32 32 32 32 32 32 32 32 32 32 32 32 32 32 32 32 32 32 32 32 32 32 32 32 32 32 32 33 32 32 32 32 32 32 32 32 32 32 32 32 32 32 33 32 32 32 32 32 32 32 32 32 32 32 32 32 32 32 32 32 32 32 32 32 32 33 33 32 32 32 33 0 0 0 33 33 33 33 33 33 33 33 33 33 33 33 33 33 33 33 33 33 33 33 33 33 33 33 33 33 33 33 33 33 33 33 33 33 33 33 33 33 32 32 32 32 33 0 0 0 0 0 0 0 0 0 0 0 0 0 0 0 0 0 0 0 0 0 0 47 47 0 0 0 55 55 56 56 56 56 56 57 57 56 56 56 56 57 57 57 57 57 57 57 57 57 57 57 58 58 58 58 57 58 58 58 58 59 59 60 60 61 62 63 57 57 57 57 57 55 55 55 55 55 55 55 75 76 53 0 0 0 0 0 40 40 100 0 0 0 0 0 44 44 44 25 37 38 30 31 31 31 32 33 34 35 36 37 38 33 45 46 42 42 41 42 42 43 44 45 45 46 47 0 0 0 0 83 84 85 0 0 0 0 0 0 0 0 59 60 60 61 61 62 63 63 63 64 64 81 65 65 65 65 65 65 65 65 65 65 65 65 64 64 64 64 64 0 0 0 0 28 28 28 27 27 27 27 27 27 27 27 0 0 0 0 0 0 0 0 0 0 0 0 72 72 0 0 75 0 0 18 1 1 1 77 77 86 86 52 53 54 54 55 55 55 55 55 55 55 55 55 55 54 54 54 54 54 54 54 54 54 54 0 0 0 0 26 26 26 26 26 26 26 26 26 26 26 26 26 26 26 26 26 26 26 26 26 26 26 26 26 26 26 26 26 26 26 26 26 26 26 26 26 26 26 26 27 27 27 27 27 28 30 31 26 26 26 26 26 26 26 26 26 26 26 26 26 26 26 71
    0 0 0 0 0 0 0 0 0 0 0 0 0 0 0 0 0 0 0 0 0 0 0 0 0 0 0 0 0 0 0 0 0 0 0 0 0 0 0 0 0 0 0 0 0 0 0 0 0 0 0 0 0 0 0 0 0 0 0 0 0 0 0 0 0 0 55 54 54 54 54 55 50 51 52 53 54 54 55 55 55 55 54 54 54 54 55 55 55 54 54 54 54 54 54 55 55 55 55 55 54 54 55 55 55 55 55 42 44 28 29 30 31 50 51 51 52 53 54 55 55 56 58 42 43 44 62 63 64 67 67 68 51 52 52 50 50 51 51 51 0 0 0 0 0 52 0 0 0 0 0 31 31 31 31 31 31 32 31 32 32 32 0 0 0 32 32 32 32 32 32 32 33 33 32 32 32 32 32 32 32 32 32 32 32 32 32 32 32 32 32 32 32 32 32 32 32 32 32 32 32 32 32 32 32 32 32 32 32 32 32 32 32 32 32 32 32 32 32 32 32 32 32 32 32 32 32 32 33 32 32 32 32 32 32 32 32 32 33 33 33 33 32 32 32 32 32 33 32 32 32 32 32 32 32 32 32 32 32 32 32 32 32 32 32 32 32 32 32 32 32 32 32 32 32 32 32 32 33 32 32 32 32 32 33 33 32 32 32 32 33 0 0 33 33 33 33 33 33 33 33 33 31 32 33 33 33 33 33 33 33 33 33 33 33 33 33 33 33 33 33 33 33 33 33 33 33 33 33 33 33 33 32 32 33 33 33 0 0 0 0 0 0 0 0 0 0 0 0 0 0 0 0 0 0 0 0 0 0 0 46 0 0 0 55 55 56 56 56 56 56 57 57 56 56 56 56 56 56 56 57 57 57 57 57 57 57 57 57 58 58 57 57 57 58 58 58 58 59 59 60 61 61 61 58 61 56 57 56 55 55 55 55 55 55 55 76 77 0 0 0 0 0 0 40 40 41 0 0 0 0 44 44 44 44 37 37 30 30 30 31 31 32 34 35 36 37 38 40 51 51 43 43 42 42 42 43 44 45 46 47 48 0 0 0 0 0 83 84 0 0 0 0 0 0 0 0 59 60 60 61 61 62 63 63 63 63 64 81 65 65 65 65 65 65 65 65 65 65 64 64 64 64 64 64 64 0 0 0 0 28 28 27 27 27 28 28 27 27 27 27 0 0 0 0 0 0 0 0 0 0 0 0 0 37 39 0 0 0 0 0 15 0 0 77 78 0 52 51 53 53 53 54 55 55 55 55 55 55 55 55 55 55 55 55 55 55 54 54 54 54 54 0 0 0 0 26 26 26 26 26 26 26 26 26 27 26 26 26 26 26 26 26 26 26 26 26 26 26 26 26 26 26 26 26 26 26 26 26 26 26 26 26 26 26 26 26 26 27 27 27 27 28 26 31 26 26 26 26 26 26 26 26 26 26 26 26 26 26 26 26
    0 0 0 0 0 0 0 0 0 0 0 0 0 0 0 0 0 0 0 0 0 0 0 0 0 0 0 0 25 25 25 0 0 0 0 0 0 0 0 0 0 0 0 0 0 0 0 0 0 0 0 0 0 0 0 0 0 0 0 0 0 0 0 0 0 0 0 0 53 53 53 54 54 54 54 54 54 54 54 55 55 55 54 54 54 54 55 55 55 54 54 54 54 54 54 55 55 55 55 54 54 54 54 54 54 54 55 55 55 55 44 46 48 49 50 51 51 52 53 54 55 54 54 39 60 59 60 62 63 45 45 46 47 48 49 50 50 51 51 52 52 52 51 52 52 52 53 0 0 0 0 0 0 0 31 31 31 32 32 32 32 32 0 0 0 32 32 32 32 32 32 32 32 32 32 32 32 32 32 32 32 32 32 32 32 32 32 32 32 32 32 32 32 32 32 32 32 32 32 32 32 32 32 32 32 32 32 32 32 32 32 32 32 32 32 32 32 32 32 32 32 32 32 32 32 32 32 33 33 32 32 32 32 32 33 0 33 32 33 33 33 33 33 33 32 32 32 33 32 32 32 32 32 32 32 33 33 32 32 32 32 32 32 32 32 32 32 32 33 33 32 32 32 32 32 32 32 32 33 33 32 32 32 32 33 33 32 32 32 32 32 33 33 33 33 33 33 33 33 33 33 33 33 33 33 33 33 33 33 33 33 33 33 33 33 33 33 33 33 33 33 33 33 33 33 33 33 33 33 33 33 33 33 33 33 33 0 0 0 0 0 0 0 0 0 0 0 0 0 0 0 0 0 0 0 0 0 0 0 0 45 46 0 0 56 55 56 56 56 56 56 56 57 56 56 56 56 56 56 57 57 57 57 57 57 57 57 57 57 58 58 57 57 57 58 58 58 58 58 58 59 60 61 61 58 43 42 56 56 55 55 55 55 55 55 55 76 77 54 0 0 0 0 0 40 40 41 0 0 0 0 44 44 44 37 37 37 30 30 30 30 31 32 34 35 36 38 50 48 51 55 43 43 42 43 43 44 45 46 47 48 0 0 0 0 0 0 0 0 0 0 0 0 0 0 0 60 60 60 61 61 62 63 63 63 63 64 93 65 65 65 65 65 65 65 65 65 65 65 64 64 64 64 64 0 0 0 0 28 28 28 28 27 27 27 27 27 27 27 28 0 0 0 0 0 0 0 0 0 0 0 2 0 3 4 5 0 0 0 0 0 15 0 77 78 50 50 51 52 53 54 54 55 55 55 55 55 55 55 55 55 54 54 55 55 55 55 54 54 54 54 0 0 0 0 26 26 26 26 26 26 26 26 26 26 26 26 26 26 26 26 26 26 26 26 26 26 26 26 26 26 26 26 26 32 25 26 26 26 26 26 26 26 26 26 26 26 26 27 27 27 27 28 27 26 26 26 26 26 26 26 26 26 26 26 26 26 26 26 26 26
    0 0 0 0 0 0 0 0 0 0 0 0 0 0 0 0 0 0 0 0 0 0 0 0 0 0 0 0 25 25 25 26 25 26 26 26 0 0 0 0 0 0 0 0 0 0 0 0 0 0 0 0 0 0 0 0 0 0 0 0 0 0 0 0 0 0 0 0 0 53 53 53 53 53 54 54 54 54 54 55 55 55 54 54 54 53 54 55 55 52 53 54 54 54 54 55 55 55 55 54 54 54 54 54 54 54 54 54 54 55 55 55 55 55 54 49 50 51 52 53 54 54 54 52 52 53 53 54 55 56 57 69 69 70 46 47 48 49 50 73 73 74 53 52 52 52 52 52 52 0 0 0 0 0 0 0 0 0 32 32 31 31 0 0 0 0 32 32 32 32 32 32 32 32 32 32 32 32 32 32 32 32 32 32 32 32 32 32 32 32 32 32 32 32 32 32 32 32 32 32 32 32 32 32 32 32 32 32 32 32 32 32 32 32 32 32 32 32 32 32 32 32 32 32 32 33 32 32 32 32 33 32 33 33 33 33 33 33 33 33 33 33 33 33 33 33 33 33 32 33 32 32 32 33 33 33 32 32 32 32 32 32 32 32 32 32 32 32 32 32 32 32 32 32 33 32 32 32 33 33 33 32 32 32 33 32 32 32 32 32 32 33 33 33 33 33 33 33 33 33 33 109 33 33 33 33 33 33 33 33 33 33 33 33 33 33 33 33 33 33 33 33 33 33 33 33 33 33 33 33 33 33 33 33 33 33 0 0 0 0 0 0 0 0 0 0 0 0 0 0 0 0 0 0 0 0 51 51 0 0 45 45 0 0 56 55 56 56 56 56 56 56 56 56 56 56 56 56 56 56 57 56 56 56 57 57 57 57 57 58 58 58 58 57 58 58 58 58 58 58 59 59 59 59 59 43 42 0 0 55 55 55 55 55 55 55 76 77 54 0 0 0 0 40 40 40 41 42 43 44 44 44 44 44 37 37 41 42 30 30 31 31 33 34 35 37 50 50 50 51 56 43 43 43 43 44 45 46 47 48 0 0 0 0 0 0 0 0 0 0 0 0 0 0 0 60 60 60 61 61 62 63 63 63 64 64 92 65 65 65 65 65 65 65 65 65 65 66 64 64 64 63 63 0 0 0 0 0 27 27 28 28 27 28 27 27 27 28 0 0 0 0 0 0 0 0 0 0 0 0 0 2 38 3 4 5 0 0 0 0 0 2 78 49 49 49 50 50 54 54 0 55 55 55 55 55 55 55 55 55 54 54 54 55 55 55 55 54 54 55 0 0 0 0 26 26 26 26 26 26 26 27 27 26 26 26 26 26 26 26 26 26 26 26 26 26 26 26 26 26 26 26 26 26 26 26 26 26 26 26 26 26 26 26 26 26 26 26 27 27 27 27 27 27 26 26 26 26 26 26 26 26 26 60 60 26 26 26 26 26 26
    0 0 0 0 0 0 0 0 0 0 0 0 0 0 0 0 0 0 0 0 0 0 0 0 0 0 0 24 25 25 25 25 25 25 25 26 26 26 26 0 0 0 0 0 0 0 0 0 0 0 0 0 0 0 0 0 0 0 0 0 0 0 0 0 0 0 0 0 0 53 53 53 53 53 53 54 54 54 54 54 54 55 55 54 54 53 48 49 50 51 52 52 53 53 54 55 55 55 55 55 54 54 54 54 54 54 54 54 54 54 54 55 55 55 55 55 55 54 54 54 54 54 47 52 52 52 53 54 55 55 56 56 56 56 57 39 40 41 42 72 73 74 53 50 51 52 52 53 52 52 52 0 0 0 0 0 0 0 0 0 0 0 0 0 0 0 0 32 32 32 32 32 32 32 32 32 32 32 32 32 32 32 32 32 32 32 32 32 32 32 32 32 32 32 32 32 32 32 32 32 32 32 32 32 32 32 32 32 32 32 32 32 32 32 32 32 32 32 32 32 32 32 32 32 33 33 32 32 32 33 33 33 33 33 33 33 33 33 33 33 33 33 33 33 33 33 33 33 33 32 33 33 33 33 33 33 32 32 32 32 33 33 33 33 32 32 32 32 33 32 32 32 33 33 33 33 33 33 33 33 33 32 32 32 33 33 32 32 32 32 33 33 33 33 33 33 33 33 33 33 33 109 33 33 33 33 33 33 33 33 33 33 33 33 33 33 33 33 33 33 33 33 33 33 33 33 33 33 32 33 33 33 33 33 33 33 33 0 0 0 0 0 0 0 0 0 0 0 0 0 0 0 0 0 0 0 0 0 0 0 44 45 0 0 56 56 55 56 56 56 56 56 56 56 56 56 56 56 57 56 57 57 57 56 56 57 57 57 57 57 58 58 58 57 57 58 58 58 58 58 59 59 59 58 59 42 42 55 55 55 55 55 55 55 55 55 76 77 54 0 0 0 0 40 40 40 41 42 43 44 44 44 44 37 37 38 42 42 31 31 31 32 34 35 36 38 50 50 50 44 43 43 43 43 44 45 46 47 48 0 0 0 0 0 0 0 0 0 0 0 0 0 0 0 60 60 60 61 62 62 63 63 63 64 64 65 65 65 65 65 65 65 65 65 65 65 66 63 64 63 63 0 0 0 0 0 28 27 27 27 27 28 28 27 27 28 28 0 0 0 0 0 0 0 0 0 0 0 0 0 0 0 0 0 39 41 0 0 0 0 70 0 2 8 49 49 53 54 54 0 0 55 55 55 55 55 55 55 55 55 54 54 54 55 55 55 54 54 55 0 0 0 0 26 26 26 26 26 26 26 26 26 96 96 26 26 26 26 26 26 26 26 26 26 26 26 26 26 26 26 26 26 26 26 26 26 26 26 26 26 26 26 26 26 26 26 27 27 26 26 26 26 26 27 26 26 26 26 26 26 26 26 59 26 60 26 26 26 26 26 26
    0 0 0 0 0 0 0 0 0 0 0 0 0 0 0 0 0 0 0 0 0 0 0 0 0 0 0 24 25 25 25 25 25 25 25 26 26 26 26 26 26 26 26 0 0 0 0 0 0 0 0 0 0 0 0 0 0 0 0 0 0 0 0 0 0 0 0 0 0 0 52 0 53 53 53 54 0 0 0 0 0 52 52 53 53 54 54 55 55 49 51 52 53 53 54 55 55 55 55 54 54 54 54 54 54 54 54 54 54 54 54 54 54 54 54 55 55 55 55 55 55 55 45 48 50 51 52 53 53 54 54 55 55 56 56 56 56 57 57 41 42 47 47 47 46 46 47 48 49 50 51 51 52 52 52 0 0 0 0 51 51 51 51 52 0 0 0 0 0 32 32 32 32 32 32 32 32 32 32 32 32 32 32 32 32 32 33 33 33 32 32 32 32 32 32 32 32 32 32 32 32 32 32 32 32 32 32 32 32 32 32 32 32 32 32 32 32 32 32 32 32 32 32 32 33 33 32 32 32 33 33 33 33 33 33 33 33 33 33 33 33 33 33 33 33 33 32 32 33 33 33 33 33 33 33 0 32 32 32 33 33 33 33 33 33 32 32 32 33 32 32 32 33 33 33 33 33 33 33 33 33 33 33 33 33 33 32 32 33 33 33 33 33 33 33 33 33 33 33 33 33 33 33 33 33 33 33 33 33 33 33 33 33 33 33 33 33 33 33 33 33 33 33 33 33 33 33 33 33 33 33 33 33 33 33 33 33 33 0 0 0 0 0 0 0 0 0 0 0 0 0 0 0 0 0 0 0 0 0 0 45 45 47 0 56 56 55 56 56 56 56 56 56 56 56 56 56 56 56 56 57 57 57 57 56 56 57 57 57 57 57 57 57 57 57 58 58 58 58 58 58 58 58 58 59 42 43 55 55 55 55 55 55 55 55 55 76 77 54 0 0 0 0 40 40 41 0 0 0 44 44 44 44 37 38 38 42 31 31 32 33 34 35 36 37 39 51 51 43 43 43 43 43 44 45 46 47 0 0 0 0 0 0 0 0 0 0 0 0 0 0 0 0 60 60 60 61 62 62 63 63 64 64 64 0 65 65 65 65 65 65 65 64 65 65 65 63 63 63 63 63 0 0 0 0 0 28 27 27 27 27 28 28 27 28 28 30 0 0 0 0 0 0 0 0 61 0 0 0 0 0 0 0 0 0 7 0 0 0 0 69 0 15 15 8 53 54 54 54 0 55 55 55 55 55 55 55 55 55 54 54 55 55 55 54 54 54 55 0 0 0 27 27 26 26 26 26 26 26 26 26 26 27 26 26 26 26 26 26 26 26 26 26 26 26 26 26 26 26 26 26 26 26 26 26 26 26 26 26 26 26 26 26 26 26 26 27 27 26 26 26 26 26 27 16 26 26 26 21 26 26 26 57 58 26 26 26 26 26 26 27
    0 0 0 0 0 0 0 0 0 0 0 0 0 0 0 0 0 0 0 0 0 0 0 0 0 0 0 24 25 25 25 25 25 25 25 25 26 26 26 26 26 26 26 26 26 26 27 28 29 30 31 32 0 0 0 0 0 0 0 0 0 0 0 0 0 0 0 0 49 0 0 0 0 0 0 0 0 0 0 0 0 0 0 0 52 52 53 53 53 53 54 54 52 53 54 54 55 55 55 54 54 54 54 55 55 55 55 54 54 54 54 54 54 54 54 54 55 55 55 55 55 55 55 56 54 54 53 52 52 53 53 54 54 54 55 56 56 56 56 56 56 57 57 57 58 44 45 46 47 48 48 48 49 49 50 51 51 51 51 52 52 51 51 51 51 0 0 0 0 0 0 19 32 32 32 32 32 32 32 32 0 0 0 32 32 32 32 32 32 32 32 32 32 33 32 32 32 32 32 32 32 32 32 32 32 32 32 32 32 32 32 32 32 32 32 32 32 32 32 32 32 32 32 32 33 33 32 32 32 33 33 32 32 33 33 33 33 33 33 33 33 33 33 33 33 33 33 33 33 33 33 33 33 33 0 0 0 32 33 33 33 33 33 33 33 32 32 32 33 33 33 32 33 33 33 33 33 33 33 33 33 33 33 33 33 33 33 33 33 33 33 33 33 33 33 33 33 33 33 33 33 33 33 33 33 33 33 33 33 33 33 33 33 33 33 33 33 33 33 33 33 33 33 33 33 33 33 33 33 33 33 33 33 33 33 33 33 33 33 33 33 36 0 0 0 0 0 0 0 0 0 0 0 0 0 0 0 0 0 0 0 46 47 0 0 56 55 55 56 56 56 56 56 56 56 56 56 56 56 56 56 56 57 56 56 56 57 57 57 57 57 57 57 57 57 57 58 58 58 58 58 58 58 58 59 42 44 55 55 55 55 55 55 55 55 55 75 77 54 0 0 0 0 40 40 41 0 0 0 44 0 44 44 37 40 31 32 32 32 33 35 36 37 38 39 40 41 42 42 42 43 43 44 45 46 47 0 0 0 0 0 0 0 0 0 0 0 0 0 0 0 0 59 60 60 61 62 62 62 63 63 79 64 64 0 0 65 65 65 65 65 65 64 65 65 64 63 63 63 0 0 0 0 0 0 0 27 27 27 27 27 28 28 28 28 29 30 0 0 0 0 0 0 0 0 0 0 0 0 0 0 0 0 0 0 0 1 44 74 74 0 0 7 7 53 53 54 54 54 0 55 55 55 55 55 55 55 55 55 54 55 55 56 53 54 53 0 0 0 0 27 27 27 26 26 26 26 26 26 26 27 27 27 27 26 26 26 26 26 26 26 26 26 26 26 26 26 26 26 26 26 26 26 26 26 26 26 26 26 26 26 26 26 26 26 27 27 28 26 26 26 26 33 32 32 26 26 26 21 21 26 26 26 26 26 26 26 26 26 26 26
    0 0 0 0 0 0 0 0 0 0 0 0 0 0 0 0 0 0 0 0 0 0 0 0 0 0 0 24 25 25 25 25 25 25 25 25 26 26 26 26 26 26 26 26 26 26 26 26 26 27 27 27 0 0 0 0 0 0 0 0 0 0 0 0 0 0 0 0 0 0 0 0 0 0 0 0 0 0 0 0 0 0 0 0 0 0 0 0 52 52 53 53 53 53 53 54 55 55 54 54 54 54 54 55 55 55 55 56 55 54 54 54 54 54 54 54 55 55 55 55 55 55 54 55 55 55 55 55 54 54 53 53 53 53 54 54 54 55 55 56 56 56 57 57 57 57 57 56 43 44 44 44 45 46 47 48 49 50 51 52 52 52 52 52 52 51 0 0 0 0 0 0 0 0 0 0 0 32 32 0 0 0 0 0 32 32 32 32 32 32 32 32 32 32 32 32 32 32 32 32 32 32 32 32 32 32 32 32 32 32 32 32 32 32 32 32 32 32 32 32 32 32 32 32 32 33 33 33 33 33 33 32 32 33 33 33 33 33 33 33 33 33 33 33 33 33 33 33 33 33 33 33 33 33 33 33 33 33 33 33 33 33 33 33 33 33 33 33 33 33 33 33 26 33 33 33 33 33 33 33 33 33 33 33 33 33 33 33 33 33 33 33 33 33 33 33 33 33 33 33 33 33 33 33 33 33 33 33 33 33 33 33 33 33 33 33 33 33 33 33 34 33 33 33 33 33 33 33 33 33 33 33 33 33 33 33 33 33 33 33 33 0 0 0 0 0 0 40 0 0 0 0 0 0 0 0 66 66 0 0 0 0 48 49 0 55 55 55 56 56 56 56 56 56 56 56 56 56 56 56 56 56 56 56 56 56 56 57 57 57 57 57 57 57 57 57 57 57 58 58 58 58 58 58 59 60 55 55 55 55 55 55 55 55 55 55 55 54 54 0 0 0 0 40 0 0 0 0 0 0 0 44 28 40 31 31 32 32 33 35 36 36 37 39 40 41 42 43 43 43 43 44 45 46 47 0 0 0 0 0 0 0 0 0 0 0 0 0 0 0 59 59 60 61 61 62 63 63 63 63 64 64 64 64 0 0 65 65 65 65 65 65 65 65 63 63 62 0 0 0 0 29 44 0 0 0 27 28 27 28 27 28 28 28 28 29 30 0 0 0 0 0 0 0 0 0 0 0 0 0 63 0 0 0 0 70 0 45 45 74 75 0 0 54 53 53 54 54 54 54 55 55 55 55 55 55 54 54 55 55 55 56 53 54 54 53 0 0 0 26 26 27 27 26 26 26 26 26 26 27 27 27 27 27 27 26 26 26 26 26 26 26 26 26 26 26 26 26 26 26 26 26 26 26 26 26 26 26 26 26 26 26 26 26 26 26 26 26 26 26 26 26 26 27 26 26 26 26 21 21 26 26 26 26 26 26 26 26 26 26 26
    0 0 0 0 0 0 0 0 0 0 0 0 0 0 0 0 0 0 0 0 0 0 0 0 0 0 0 24 25 25 25 25 25 25 25 25 25 26 26 26 26 26 26 26 26 26 26 26 26 26 26 27 26 0 0 0 0 0 0 0 0 0 0 0 0 0 0 0 0 0 0 0 0 0 0 0 0 0 0 0 0 0 0 0 0 0 0 0 0 0 0 0 52 52 53 53 54 54 54 54 54 54 54 55 55 56 56 56 56 56 55 54 54 54 54 54 54 55 55 55 55 55 54 54 54 54 55 55 55 56 55 55 54 54 54 54 54 55 55 56 57 58 58 55 55 56 56 56 56 57 58 58 45 46 47 48 49 50 51 52 52 52 52 52 52 52 51 51 0 0 0 0 0 0 0 0 0 0 0 0 0 0 0 0 32 32 32 32 32 32 32 32 32 32 32 33 32 32 32 32 32 32 32 32 32 32 32 32 32 32 32 32 32 32 32 33 33 32 32 32 32 32 32 32 32 32 32 33 33 33 32 32 33 33 33 33 33 33 33 33 33 33 33 33 33 33 33 33 33 33 33 33 33 33 33 33 33 33 33 33 33 33 33 33 33 33 33 33 33 33 33 33 33 33 33 33 33 33 33 33 33 33 33 33 33 33 33 33 33 33 33 33 33 33 33 33 33 33 33 33 33 33 33 33 33 33 33 33 33 33 33 33 33 33 33 33 33 33 33 33 33 33 33 33 33 33 33 33 33 33 33 33 33 33 33 33 33 33 33 33 33 0 0 0 0 0 0 0 0 0 0 0 0 0 0 0 0 0 0 0 0 0 49 49 0 0 55 55 55 56 56 56 56 56 56 56 55 56 56 56 56 56 56 56 56 56 56 57 57 57 57 57 57 57 57 57 57 57 58 58 58 59 58 58 58 59 55 55 55 55 55 55 55 55 55 55 55 54 54 0 0 0 0 0 0 0 0 0 0 0 0 44 38 31 31 31 32 33 34 35 36 37 38 40 51 52 43 43 43 43 44 45 46 47 0 0 0 0 0 0 0 0 0 0 0 0 0 0 0 59 59 60 60 61 62 63 63 63 63 75 64 64 64 64 64 64 64 64 64 64 64 64 64 62 62 0 0 0 0 0 28 28 28 0 0 0 27 28 28 28 28 28 28 28 28 29 30 31 0 0 0 0 0 0 0 0 0 0 0 0 63 0 0 0 0 70 0 0 0 0 0 54 54 54 53 53 54 54 55 55 55 55 55 55 55 55 55 55 55 55 54 54 54 54 54 0 0 0 26 26 26 26 27 26 26 26 26 26 26 26 27 27 27 27 27 27 27 27 27 26 26 26 26 26 26 26 26 26 26 25 25 25 26 26 27 27 26 26 26 26 26 26 26 26 26 26 26 26 26 26 26 26 26 26 26 26 26 26 26 21 26 26 26 26 26 26 26 26 26 26 26
    0 0 0 0 0 0 0 0 0 0 0 0 0 0 0 0 0 0 0 0 0 0 0 0 0 0 0 24 25 25 25 25 25 25 25 25 26 26 26 26 26 26 26 26 26 26 26 26 26 26 26 26 27 27 0 0 27 27 0 0 0 0 32 33 0 0 35 36 37 0 0 40 41 42 0 0 0 0 0 0 0 0 0 0 0 0 0 0 0 0 0 0 0 0 0 53 53 53 53 53 54 54 54 55 55 56 56 56 56 56 56 55 54 54 54 54 54 55 55 55 55 55 54 54 54 55 55 55 55 55 55 56 56 56 55 55 54 54 55 55 57 58 59 60 54 55 55 55 56 56 56 57 57 57 57 58 49 44 45 46 52 52 52 51 51 51 52 76 76 53 53 50 50 50 0 0 0 0 50 51 51 51 0 112 0 0 32 32 32 32 32 32 32 32 33 35 32 32 32 32 32 32 32 33 32 32 32 32 32 32 32 32 32 32 33 33 33 32 32 32 33 33 32 32 32 32 32 33 33 33 33 33 33 33 33 33 33 33 33 33 33 33 33 33 33 33 33 33 33 33 33 33 33 33 33 33 33 33 33 33 33 33 33 33 33 33 33 32 33 33 33 33 33 33 33 33 33 33 33 33 33 33 33 33 33 33 33 33 33 33 33 33 33 33 33 33 33 33 33 33 33 34 34 33 33 33 33 33 33 33 33 33 33 33 33 33 33 33 33 33 33 33 33 33 33 33 33 33 33 33 33 33 33 33 33 33 33 33 33 33 33 33 51 0 0 0 39 39 57 0 0 45 0 0 61 0 0 0 0 0 0 0 0 50 0 0 54 55 55 56 56 56 56 56 56 56 56 56 56 56 56 56 56 56 57 56 56 57 57 57 57 57 57 57 57 57 57 57 58 58 58 58 58 58 58 59 42 55 55 55 55 55 55 55 55 56 55 54 54 0 0 0 0 0 0 0 0 0 0 0 44 37 38 31 31 32 33 33 35 36 36 37 37 48 49 52 44 44 44 45 45 46 47 0 0 0 0 0 0 0 0 0 0 0 0 0 0 0 59 59 60 60 61 62 62 63 63 63 76 64 64 64 64 64 64 64 64 64 64 64 62 62 62 62 0 0 0 0 0 27 28 28 28 28 0 28 28 28 28 28 28 28 29 29 30 29 30 33 0 0 0 0 0 51 0 0 0 0 0 0 63 63 61 62 70 70 0 0 0 0 53 54 55 55 54 54 54 55 55 55 55 55 55 55 55 55 55 55 55 54 54 54 53 53 53 0 0 0 26 26 26 26 27 26 26 26 26 26 26 26 27 27 27 27 27 27 27 26 26 26 26 26 26 26 26 26 26 26 26 25 25 26 26 27 27 28 26 26 26 26 26 26 26 26 26 26 26 26 26 26 26 26 26 26 26 26 26 26 26 21 26 26 26 26 26 26 26 26 26 26 26
    0 0 0 0 0 0 0 0 0 0 0 0 0 0 0 0 0 0 0 0 0 0 0 0 0 0 0 0 25 25 25 25 25 25 25 26 26 26 26 26 26 26 26 26 26 26 26 26 26 26 26 26 26 27 27 27 27 27 27 27 27 27 0 31 32 33 34 35 36 37 38 39 40 0 0 42 0 0 0 0 43 0 0 0 0 0 0 0 0 0 0 0 0 0 0 0 0 52 52 52 53 53 53 54 55 55 56 56 56 55 55 55 54 54 54 54 54 55 55 55 55 55 55 55 54 55 55 55 55 55 54 54 55 55 56 56 56 55 55 55 52 52 53 54 54 55 56 55 55 56 56 56 56 56 56 56 57 58 45 46 43 43 52 51 51 50 51 52 52 52 52 52 53 52 51 51 51 51 51 51 51 51 51 52 111 111 0 0 32 32 32 32 32 32 33 35 0 0 32 32 32 32 32 33 33 32 32 32 32 32 33 33 33 33 33 33 33 33 33 32 33 32 33 32 32 32 32 32 33 33 33 33 33 33 33 33 33 33 33 33 33 33 33 33 33 33 33 33 33 33 33 33 33 33 33 33 33 33 33 33 33 33 33 33 33 33 33 33 33 33 33 33 33 33 33 33 33 33 33 33 33 33 33 33 33 33 33 33 33 33 33 33 33 33 33 33 33 33 33 33 33 33 34 33 33 33 33 33 33 33 33 33 33 33 33 33 33 33 33 33 33 33 33 33 33 33 33 33 33 33 33 33 33 33 33 33 33 33 33 33 33 33 0 0 0 0 0 0 0 0 0 0 0 0 0 0 0 0 0 0 0 0 0 51 0 54 54 55 55 55 56 56 56 56 56 56 56 56 56 56 56 56 56 56 56 56 56 57 57 57 57 57 57 57 57 57 57 57 58 58 58 58 58 58 58 59 42 55 55 55 55 55 55 55 55 56 55 54 54 0 0 0 0 0 0 0 0 0 0 44 44 38 39 40 32 33 33 34 35 36 37 37 47 48 53 53 45 44 45 45 46 47 0 0 0 0 0 0 0 0 0 0 0 0 0 0 59 59 59 60 60 61 62 62 63 63 63 90 64 64 64 64 64 64 64 64 64 64 64 62 62 62 62 0 0 0 0 0 37 28 28 28 28 28 28 28 28 28 28 27 27 28 28 29 29 30 32 0 0 0 53 0 0 60 60 0 0 0 0 0 63 63 63 0 0 0 0 0 0 27 54 55 56 57 55 55 55 55 55 55 55 55 55 55 55 55 55 55 55 54 54 54 54 0 0 0 27 27 26 26 26 26 26 26 26 26 26 26 26 26 26 27 27 27 27 27 26 26 26 26 26 26 26 26 26 26 26 26 26 25 26 26 27 27 28 32 26 26 26 26 26 26 26 26 26 26 26 26 26 26 27 26 26 26 26 26 26 26 26 26 35 26 26 26 26 26 26 26 26 26 26
    0 0 0 0 0 0 0 0 0 0 0 0 0 0 0 0 0 0 0 0 0 0 0 20 0 0 0 0 25 25 25 25 25 25 26 26 26 26 26 26 26 26 26 26 26 26 26 26 26 26 26 26 26 26 27 27 27 27 27 27 27 27 27 27 27 28 29 30 48 32 51 51 0 0 0 0 42 42 42 42 43 60 0 0 0 0 0 0 0 0 0 0 0 0 0 0 0 0 0 0 53 53 53 54 54 54 54 55 55 55 56 51 52 53 54 54 54 54 55 55 55 55 55 55 55 55 55 55 55 54 54 54 54 54 55 55 55 55 55 55 56 57 54 54 55 55 55 56 56 56 56 56 56 56 56 56 56 57 58 40 41 42 43 44 46 47 48 49 50 51 52 52 52 53 53 51 51 51 50 51 52 52 55 52 52 110 110 111 111 112 34 35 35 35 0 0 0 0 0 32 32 32 32 33 33 33 32 32 33 33 33 33 33 33 33 33 33 33 33 32 33 32 33 32 33 32 32 33 33 33 33 33 33 33 33 33 33 33 33 33 33 33 33 33 33 33 33 33 33 33 33 33 33 33 33 33 33 33 33 33 33 33 33 33 33 33 33 33 33 33 33 33 33 33 33 33 33 33 33 33 33 33 33 33 33 33 33 33 33 33 33 33 33 33 33 33 33 33 33 33 33 33 33 33 33 33 33 33 33 33 33 33 33 33 33 33 33 33 33 33 33 33 33 33 33 33 33 33 33 33 33 33 33 33 33 33 33 33 33 33 33 33 34 0 0 0 0 0 0 0 0 0 0 0 0 0 0 0 0 0 0 0 0 51 0 54 54 55 55 55 55 55 56 56 56 56 56 56 56 56 56 56 56 56 56 56 56 57 57 57 57 57 57 57 57 57 58 58 57 57 58 58 58 58 58 59 55 55 55 55 55 55 55 55 55 56 53 54 54 0 0 0 0 0 0 0 0 0 45 44 38 39 39 32 33 33 34 35 36 37 37 38 48 48 52 45 45 45 46 47 48 0 0 0 0 0 0 0 0 0 0 0 0 0 0 59 59 59 60 60 61 62 62 62 63 63 78 0 0 64 64 64 64 64 64 64 64 64 63 63 62 62 0 0 0 0 28 28 28 28 28 28 28 28 28 28 28 28 27 27 27 28 28 0 0 30 31 0 0 0 52 0 0 0 59 0 0 0 0 0 0 0 50 51 0 0 0 0 0 54 55 55 55 55 55 55 55 55 55 55 55 55 55 55 55 55 55 56 54 54 54 54 0 0 0 27 27 27 26 26 26 26 26 26 26 27 27 26 26 26 26 27 27 27 27 27 26 26 26 26 26 26 26 27 27 27 26 26 26 25 25 26 27 27 27 26 26 26 26 26 26 26 26 26 26 26 26 25 26 26 27 27 27 26 26 26 26 26 26 27 34 26 26 26 26 26 26 26 26 26 26
    0 0 0 0 0 0 0 0 0 0 0 0 0 0 0 0 0 0 0 0 0 0 0 0 0 0 0 0 25 25 25 25 25 25 26 26 26 25 26 26 26 26 26 26 26 26 26 26 26 26 27 26 26 26 26 27 27 27 27 27 27 27 27 27 27 27 27 27 27 0 0 0 49 51 56 56 0 0 61 0 0 0 64 0 0 0 0 0 0 0 0 0 0 0 0 0 0 0 0 0 0 53 0 54 54 54 54 54 54 54 55 55 52 54 54 54 54 54 54 55 55 55 55 55 55 55 55 55 55 54 54 54 54 54 54 55 55 55 55 55 55 56 56 56 56 56 56 56 56 56 56 56 56 56 56 55 56 57 57 58 59 41 42 43 44 45 46 47 48 49 50 51 51 45 46 47 48 49 50 51 52 52 54 55 51 51 52 52 52 0 0 0 0 0 0 0 0 0 0 0 33 33 33 33 33 33 33 33 33 33 33 33 33 33 33 33 33 0 0 32 33 32 32 32 33 32 32 33 33 33 33 33 33 33 33 33 33 33 33 33 33 33 33 33 33 33 33 33 33 33 33 33 33 33 33 33 33 33 33 33 33 33 33 33 33 33 33 33 33 33 34 33 33 33 33 33 33 33 33 33 33 33 33 33 33 33 33 33 33 33 33 33 33 33 33 33 33 33 33 33 33 33 33 33 34 33 33 33 33 33 33 33 33 33 33 33 33 33 33 33 33 33 33 33 33 33 33 33 33 33 33 33 33 33 33 33 33 33 33 33 33 33 34 0 0 0 0 0 0 0 0 0 0 0 0 0 0 0 0 0 0 0 0 0 0 0 55 55 55 55 55 55 56 56 56 56 56 56 56 56 56 56 56 56 56 56 55 56 56 56 56 56 57 57 57 57 57 57 57 57 58 58 58 58 58 59 55 55 55 55 55 55 55 55 55 56 54 54 54 0 0 0 0 0 0 0 0 0 45 37 38 39 32 33 33 34 35 36 37 38 38 48 48 52 45 45 45 46 47 48 0 0 0 0 0 0 0 0 0 0 0 0 0 0 59 59 59 60 61 61 62 62 62 63 63 64 0 0 0 64 64 64 64 64 64 64 64 64 63 63 64 0 0 0 0 28 28 28 28 28 28 28 28 28 28 28 28 28 0 0 0 0 0 0 0 0 0 0 0 0 0 0 0 0 0 0 0 0 53 0 0 0 0 0 0 0 63 63 18 55 56 55 55 55 55 55 55 55 55 55 55 55 55 55 55 55 56 56 54 54 54 0 0 0 27 26 26 26 27 26 26 26 26 26 26 26 27 26 26 26 26 27 27 27 27 27 26 26 26 26 26 26 26 26 26 26 26 26 27 27 27 26 26 26 26 26 26 26 26 26 26 26 26 26 26 25 25 25 26 26 27 27 27 26 26 26 18 18 18 26 26 26 26 26 26 26 26 26 26 26 26
    0 0 0 0 0 0 0 0 0 0 0 0 0 0 0 0 0 0 0 0 0 0 0 0 0 0 0 0 25 25 25 25 25 25 25 25 25 25 26 26 0 26 26 26 26 26 26 26 26 26 26 26 26 26 26 27 27 27 27 27 27 27 26 26 27 27 27 27 27 27 27 27 27 51 57 56 56 0 61 62 0 0 0 40 40 60 0 0 0 0 0 0 0 0 0 0 0 0 0 87 0 0 0 0 0 0 55 55 55 54 54 54 54 54 54 55 55 54 54 54 55 55 55 56 56 55 55 55 55 54 54 54 54 54 54 54 55 55 55 55 55 55 55 55 56 56 56 56 56 55 55 55 56 56 56 57 57 57 57 58 58 58 59 59 61 59 59 60 44 45 46 46 46 45 46 47 48 49 50 51 52 52 49 50 50 51 51 51 52 52 52 53 53 54 50 50 51 0 0 0 0 0 32 33 33 33 33 33 33 33 33 33 33 33 33 33 33 33 33 32 33 32 32 32 32 33 33 33 33 33 33 33 33 33 33 33 33 33 33 33 33 33 33 33 33 33 33 33 33 33 33 33 33 33 33 33 33 33 33 33 33 33 33 33 33 33 33 33 33 33 33 33 33 33 33 33 33 33 33 33 33 33 33 33 33 33 33 33 33 33 33 33 33 33 33 33 33 33 33 33 33 33 33 33 33 33 33 33 33 33 33 33 0 33 33 33 33 33 33 33 33 33 33 33 33 33 33 33 33 33 33 33 33 33 33 33 33 33 33 33 33 33 34 0 0 0 0 0 0 0 0 0 0 0 0 0 0 0 0 0 0 0 0 0 0 0 55 55 55 55 55 55 55 56 56 56 56 56 56 56 56 56 56 56 56 56 55 56 56 56 56 56 57 57 57 57 57 57 57 57 58 58 58 58 58 59 44 56 55 55 55 55 55 55 55 56 54 54 54 0 0 0 0 0 0 0 0 45 38 38 39 32 32 33 34 35 36 37 38 38 39 48 52 45 45 45 46 47 48 0 0 0 0 0 0 0 0 0 0 0 0 0 0 59 59 59 60 61 61 62 62 62 63 63 63 0 0 0 64 63 64 64 63 63 63 63 63 62 63 63 0 0 0 28 28 28 28 28 28 28 28 28 28 28 28 28 28 0 0 0 0 0 0 0 0 0 0 0 0 0 0 0 0 0 0 0 0 0 0 0 0 0 0 0 0 63 63 64 56 57 57 55 55 55 55 55 55 55 55 55 55 55 55 55 55 55 53 53 54 54 0 0 89 27 27 26 26 26 26 27 26 26 26 26 26 0 26 26 26 26 26 27 27 26 27 27 26 26 26 26 26 26 26 26 27 27 27 27 26 27 26 26 26 26 26 26 26 26 26 26 26 26 26 26 20 20 20 26 26 26 26 26 26 26 26 26 18 18 27 26 26 26 26 26 26 26 26 26 26 26 26
    0 0 0 0 0 0 0 0 0 0 0 0 0 0 0 0 0 0 0 0 0 0 0 0 0 0 0 0 25 25 25 25 25 25 25 25 25 26 0 0 25 26 26 26 26 26 26 26 26 26 26 26 26 26 26 27 27 27 27 27 27 27 26 26 27 27 27 27 27 27 27 27 27 27 27 27 56 34 0 62 62 33 33 0 0 0 0 0 83 0 0 0 0 0 0 0 0 0 0 0 88 0 0 0 0 0 0 55 55 54 54 54 54 55 54 54 54 54 54 54 54 55 55 55 55 55 55 55 55 55 54 54 54 54 54 54 55 55 55 55 54 54 54 54 54 55 55 55 55 55 55 55 56 56 56 57 57 58 59 59 59 59 59 60 61 58 58 59 61 58 45 46 43 43 44 45 46 47 47 47 48 49 50 48 48 48 49 50 50 51 51 51 51 51 51 51 52 50 50 0 0 0 0 0 27 33 33 33 33 33 33 33 33 33 33 33 33 33 33 32 33 33 32 32 32 33 33 33 33 33 33 33 33 33 33 33 33 33 33 33 33 33 33 33 33 33 33 33 33 33 33 33 33 33 33 33 33 33 33 33 33 33 33 33 33 33 33 33 33 33 33 33 33 33 33 33 33 33 33 33 33 33 33 33 33 33 33 33 33 33 33 33 33 33 33 33 33 33 33 33 33 33 33 33 34 33 33 33 33 33 0 0 0 34 34 34 34 34 33 33 33 33 33 33 33 33 33 33 33 33 33 33 33 33 33 33 33 33 33 33 33 33 34 0 0 0 0 0 0 0 0 0 0 0 0 47 0 0 0 0 0 0 0 0 0 0 55 55 55 55 55 55 55 56 56 56 56 56 55 55 55 56 56 56 56 56 56 56 56 57 56 56 57 57 57 57 57 57 57 57 58 58 58 58 58 59 56 56 56 56 56 56 56 56 56 56 54 54 0 0 0 0 0 0 0 0 0 45 38 31 32 32 33 34 35 36 37 38 39 40 48 51 44 45 45 46 47 48 0 0 0 0 0 0 0 0 0 0 0 0 0 0 58 58 59 60 61 61 62 62 62 63 63 63 63 0 0 64 63 63 64 63 62 63 62 62 63 63 63 0 28 28 28 28 28 28 28 28 28 28 28 28 28 28 28 28 0 0 0 0 0 0 0 0 0 0 0 0 0 0 0 0 0 0 0 0 0 0 48 47 49 99 0 0 63 63 63 64 55 56 56 55 55 55 55 55 55 55 55 55 55 55 55 56 56 53 53 53 0 0 0 0 26 37 27 27 26 26 26 27 27 27 27 0 0 0 26 27 26 26 26 27 27 26 26 26 26 26 27 26 26 26 26 26 27 27 27 26 26 26 26 26 26 26 26 26 26 26 26 26 26 26 26 26 26 26 26 26 26 26 26 26 26 26 26 26 27 27 27 26 26 26 26 26 26 26 26 26 26 26 26
    0 0 0 0 0 0 0 0 0 0 0 0 0 0 0 0 0 0 0 0 0 0 0 0 0 0 0 24 25 25 25 25 24 25 25 25 26 26 0 0 26 26 26 26 26 26 26 26 26 26 26 26 26 26 26 26 27 27 27 27 27 27 26 26 27 27 27 27 27 27 27 27 27 27 27 27 27 27 27 28 28 63 34 0 0 0 0 0 83 83 80 81 0 0 0 0 0 0 0 0 88 0 0 0 0 89 90 55 55 0 0 0 0 0 0 54 54 54 54 54 54 54 55 55 55 55 55 55 55 55 55 54 54 54 54 54 55 55 55 55 54 54 54 54 54 54 54 54 55 55 55 55 56 56 56 56 57 57 57 57 57 57 57 58 57 54 56 58 59 60 60 61 42 43 44 45 46 47 48 48 48 49 48 48 48 48 48 49 50 51 51 51 50 51 51 52 52 52 51 50 0 0 0 0 0 0 0 0 0 0 33 0 0 0 0 33 32 33 33 33 33 33 33 32 33 33 33 33 33 33 33 33 33 33 33 33 33 33 33 33 33 33 33 33 33 33 33 33 33 33 33 33 33 33 33 33 33 33 33 33 33 33 33 33 33 33 33 33 33 33 33 33 33 33 33 33 33 33 33 33 33 33 33 33 33 33 33 33 33 33 33 33 33 33 33 33 33 33 33 33 33 33 33 33 33 33 33 33 34 0 0 0 0 34 34 34 34 34 33 33 33 33 33 33 33 33 33 33 33 33 33 33 33 33 33 33 33 33 33 33 33 33 34 0 0 0 39 40 0 0 0 0 0 46 47 47 0 0 0 0 0 0 0 0 0 0 55 55 55 55 55 55 55 55 56 56 56 56 55 55 55 56 56 56 56 56 56 56 56 57 57 57 57 57 57 57 57 57 57 57 57 58 58 58 58 59 56 56 56 56 56 56 57 56 56 55 54 54 0 0 47 0 0 0 0 0 0 45 31 32 32 33 34 35 36 37 38 39 40 42 43 44 45 45 46 47 48 0 0 0 0 0 0 0 0 0 0 0 0 0 58 58 58 59 60 60 61 62 62 62 62 63 63 63 63 63 63 63 63 64 64 62 62 62 62 62 63 0 0 0 28 28 28 28 28 28 28 28 28 28 28 28 28 28 28 0 0 0 0 0 0 0 0 0 0 0 0 38 0 0 0 0 0 0 0 0 0 0 0 100 99 99 0 63 63 53 54 54 55 55 55 55 55 55 55 55 55 55 55 55 55 55 56 56 53 53 53 0 0 0 0 20 26 37 27 27 26 26 26 27 27 27 27 0 0 0 26 27 27 27 27 27 27 26 26 26 26 27 26 26 26 27 27 26 26 26 27 26 26 26 26 26 26 26 26 26 26 26 26 26 26 26 26 26 26 26 26 26 26 26 26 26 26 92 92 26 27 27 27 26 26 26 26 27 26 26 26 26 26 26 26
    0 0 0 0 0 0 0 0 1 1 0 0 0 0 0 0 0 0 0 0 1 1 0 0 0 0 0 24 25 25 25 25 24 25 25 26 26 0 0 0 26 26 26 26 26 26 26 26 26 26 26 26 26 27 27 26 27 27 27 27 27 27 27 27 27 27 27 27 27 27 27 27 27 27 27 27 27 27 27 28 28 28 28 28 28 0 83 83 83 83 80 0 0 0 0 0 0 0 0 0 0 0 57 0 79 89 90 62 90 62 0 0 0 0 0 0 54 53 53 53 53 53 53 53 54 55 55 55 55 55 55 54 54 54 54 54 54 55 55 55 55 54 54 54 54 54 54 54 54 54 54 55 55 55 56 56 56 56 57 57 57 56 57 57 53 53 53 52 31 24 61 62 63 63 64 41 42 45 45 45 46 47 47 47 48 48 48 48 48 47 48 49 50 50 51 52 52 53 54 57 50 49 0 0 0 0 0 0 0 0 0 0 0 0 0 0 33 33 33 33 33 33 33 33 33 33 33 33 33 33 33 33 33 33 33 33 33 33 33 33 33 33 33 33 33 33 33 33 33 33 33 33 33 33 33 33 33 33 33 33 33 33 33 33 33 34 34 33 33 33 33 33 33 33 33 33 33 33 33 33 33 33 33 33 33 33 33 33 33 33 33 33 33 33 33 33 33 33 33 33 33 33 33 33 33 33 33 34 34 0 0 0 33 34 34 34 34 34 33 33 33 33 33 33 33 33 33 33 33 33 33 33 33 33 33 33 33 33 33 33 33 33 34 34 35 0 0 0 0 0 0 0 0 0 0 0 0 0 0 0 0 0 0 0 0 0 0 0 55 55 55 55 55 55 56 56 56 56 55 55 55 56 56 56 56 56 55 56 56 56 57 56 56 57 57 57 57 57 57 57 57 57 58 58 58 59 60 56 56 56 56 56 57 55 55 55 54 54 0 0 0 0 0 0 0 0 45 45 32 33 33 34 35 37 38 39 39 40 41 43 44 45 45 46 47 48 0 0 0 80 81 82 82 0 0 0 0 0 0 58 58 59 59 60 61 61 61 62 62 62 63 63 63 63 63 63 63 63 64 64 64 62 62 62 62 63 0 0 28 28 28 28 28 28 28 28 29 28 28 28 28 28 28 28 0 0 0 0 0 0 0 0 0 0 0 0 38 0 0 0 0 0 0 0 0 0 0 0 0 100 100 99 67 63 64 52 53 54 55 55 55 55 55 55 55 55 55 55 55 55 55 55 56 57 54 54 0 0 0 0 20 27 26 27 27 27 27 26 26 27 27 27 27 27 0 0 26 27 27 27 27 27 28 25 25 26 26 26 26 26 27 27 27 26 26 26 26 26 26 26 62 62 26 26 26 26 26 26 26 26 26 26 26 26 26 26 26 26 26 26 26 27 26 27 27 26 26 26 97 97 26 26 26 26 26 26 26 26 26 27 26
    0 0 0 0 0 0 0 0 0 4 0 0 0 0 0 0 0 0 0 0 1 0 0 0 0 0 0 24 25 25 25 25 25 25 25 26 26 25 25 26 26 26 26 26 26 26 26 26 26 26 26 26 26 26 26 26 27 27 27 27 26 27 27 27 27 27 27 27 27 27 27 27 27 27 28 27 27 27 27 28 28 28 28 28 27 27 28 84 83 82 79 69 0 0 0 0 0 0 0 0 0 55 85 57 0 0 61 62 90 90 90 65 66 95 0 0 0 0 0 0 52 52 53 53 53 54 54 55 55 55 55 54 54 54 54 54 54 54 55 55 55 55 54 54 54 54 54 54 54 54 54 54 54 55 55 56 56 56 56 56 56 56 57 56 54 54 53 53 52 27 30 32 33 34 35 55 56 42 43 44 45 46 47 47 47 48 48 48 48 45 45 46 47 48 49 50 46 52 53 54 50 50 49 49 50 50 50 50 51 51 52 51 51 51 51 51 33 33 33 33 33 33 33 33 33 33 33 33 33 33 33 33 33 33 33 33 33 33 33 33 33 33 33 33 33 33 33 33 33 33 33 33 33 33 33 33 33 33 33 33 33 33 33 33 33 34 34 33 33 33 33 33 33 33 33 33 33 33 33 33 33 33 33 33 33 33 33 33 33 33 33 33 33 33 33 33 33 33 33 33 33 33 33 33 33 33 34 34 34 0 0 33 34 34 34 34 34 34 34 33 33 33 33 34 33 33 33 33 33 33 33 33 33 33 33 33 33 33 33 33 33 33 33 33 34 34 0 0 0 0 0 0 0 0 0 0 0 0 0 0 0 0 0 0 0 0 49 0 0 55 55 55 55 55 55 55 56 56 55 55 55 56 56 56 56 55 55 55 56 56 56 56 56 57 57 57 57 57 57 57 57 57 57 58 58 59 60 60 56 56 56 53 54 55 55 54 54 54 54 54 0 0 0 0 0 46 46 32 33 34 35 36 37 38 39 40 41 42 43 45 45 46 47 48 0 0 0 80 81 82 83 84 0 0 0 0 0 0 58 58 59 60 60 61 61 61 61 62 62 63 63 63 63 63 63 63 63 63 63 64 65 62 62 62 62 0 0 28 28 28 28 28 28 28 29 29 28 28 28 28 28 28 28 0 0 0 0 0 0 0 0 0 0 0 0 0 0 0 48 0 0 0 0 0 59 0 0 0 0 60 65 66 66 65 65 53 66 67 68 55 55 55 55 55 55 55 55 55 55 55 55 55 55 54 54 0 0 0 0 27 27 27 26 27 27 27 27 27 27 27 27 27 27 27 27 27 27 27 27 27 26 27 23 24 25 26 26 26 26 0 0 26 26 26 26 26 26 26 26 26 26 62 26 26 26 26 26 26 26 26 26 26 26 26 26 26 26 26 26 26 26 26 26 26 26 93 26 26 26 96 26 26 26 26 26 26 26 26 26 26 26
    0 0 0 0 0 0 0 0 0 0 0 0 0 0 1 0 0 0 0 0 0 0 19 0 0 0 0 24 25 25 25 25 25 25 25 26 25 25 25 26 26 26 26 26 26 26 26 26 26 26 26 26 26 26 26 26 26 26 26 26 27 27 27 27 27 27 27 27 27 27 27 27 27 27 27 27 28 28 28 28 28 28 28 27 28 28 28 28 28 28 28 69 0 0 0 0 49 50 74 75 0 55 56 86 85 81 0 62 61 90 87 95 96 88 88 0 0 0 0 0 0 0 0 0 0 0 54 54 54 54 54 54 54 54 54 54 54 55 55 55 55 55 55 55 55 54 54 54 54 54 54 54 54 54 55 55 55 55 55 55 56 56 57 55 54 54 54 53 53 53 53 52 27 28 27 28 29 55 56 57 58 59 35 36 37 38 44 39 43 44 45 46 47 43 44 45 46 47 52 50 50 49 49 49 49 49 50 50 50 51 51 51 51 51 51 51 0 0 0 0 33 33 33 33 33 33 33 33 33 33 33 33 33 33 33 33 33 33 33 33 33 33 33 33 33 33 33 33 33 33 33 33 33 33 33 33 33 33 33 33 33 33 33 33 33 33 33 33 33 33 33 33 33 33 33 33 33 33 33 33 33 33 33 33 33 33 33 33 33 33 33 33 33 33 33 33 33 33 33 33 33 33 33 33 33 33 33 34 34 34 33 34 34 34 34 34 34 34 34 33 33 34 33 33 33 33 33 33 33 33 33 33 33 33 33 33 33 33 33 33 33 33 33 33 34 34 0 0 0 0 0 0 0 0 0 0 0 0 0 0 0 0 0 0 0 0 0 0 0 54 55 55 55 55 55 55 55 56 55 55 55 56 56 56 56 55 55 55 56 56 56 56 56 57 57 57 57 57 57 57 57 57 57 58 58 58 58 58 59 56 53 53 54 54 54 54 54 54 54 0 0 0 0 0 0 46 32 33 34 35 36 37 38 39 40 41 42 43 44 46 46 47 48 0 0 0 0 80 81 82 84 0 0 0 0 0 58 58 58 59 59 60 61 61 61 61 78 75 63 0 63 63 63 63 63 63 63 63 63 64 62 62 63 0 0 0 28 28 28 28 28 28 28 28 29 29 28 28 28 28 28 28 0 0 0 0 0 0 0 0 0 0 0 0 0 0 0 50 49 50 0 0 0 0 57 60 0 0 0 60 61 62 63 52 53 53 54 55 55 55 55 55 55 55 55 55 55 55 55 56 55 55 54 53 0 0 0 27 27 27 27 27 26 27 27 27 27 27 27 27 27 27 27 27 27 27 27 26 26 26 26 26 27 27 28 26 26 27 0 0 0 0 26 26 26 26 26 26 26 26 26 26 26 26 26 26 26 26 26 26 26 26 26 26 26 26 26 26 26 26 26 26 26 26 26 26 26 26 26 26 26 26 26 26 26 26 26 26 26 26 26
    0 0 0 0 0 0 0 0 0 0 0 0 0 1 1 1 7 0 0 0 0 0 0 0 0 0 0 0 25 25 25 25 25 25 25 26 26 25 25 26 26 26 26 26 26 26 26 26 26 26 26 26 26 26 27 26 26 26 26 26 27 27 27 27 27 27 27 27 27 27 27 27 27 27 27 27 28 28 28 28 28 28 27 28 28 28 28 28 28 28 28 28 28 28 0 0 33 34 83 0 0 55 55 85 85 0 0 0 90 90 101 91 97 89 0 0 0 0 0 0 0 0 0 0 0 0 0 0 0 54 54 54 54 54 54 54 54 55 54 55 55 55 55 55 55 55 55 54 54 54 54 54 54 54 55 55 55 55 55 55 55 55 55 56 55 54 54 54 54 54 53 52 52 52 53 54 55 56 57 58 59 60 61 62 63 64 65 66 67 40 41 42 43 44 45 46 46 47 48 49 48 48 49 49 49 49 49 49 50 50 51 51 51 52 51 51 110 0 0 0 0 0 27 33 33 33 33 33 33 40 41 33 33 33 33 33 33 33 33 33 33 33 33 33 33 33 33 33 33 33 33 33 33 33 33 33 33 33 33 33 33 34 34 34 34 33 33 33 33 33 33 33 33 33 33 33 33 33 33 33 33 33 33 33 33 33 33 33 33 33 33 33 33 33 33 33 33 33 33 33 33 33 34 33 33 33 34 34 34 34 33 34 34 34 34 34 34 34 34 34 33 33 33 34 33 33 33 34 34 33 33 33 33 33 33 33 33 33 33 34 33 33 33 33 33 34 0 0 0 0 0 0 0 0 0 0 0 0 0 0 0 0 0 0 0 0 0 0 0 0 55 55 55 55 55 55 55 55 55 55 55 55 56 56 56 55 55 55 56 56 56 56 56 56 56 57 57 57 57 57 57 57 57 58 58 58 58 57 58 55 54 54 54 54 54 54 54 53 53 0 0 0 0 0 0 46 33 34 35 36 37 38 39 40 41 42 43 44 46 47 47 48 0 0 0 0 0 0 0 0 0 0 0 0 0 58 58 58 59 59 60 60 61 61 61 84 74 0 0 0 63 63 63 63 63 62 62 63 61 61 62 62 63 0 0 28 28 28 28 28 28 28 28 28 28 28 28 28 28 28 28 28 0 0 0 0 0 0 0 0 0 0 0 0 0 0 12 12 12 0 0 0 19 19 19 20 21 57 23 0 99 51 52 52 53 54 55 55 55 55 55 55 55 55 55 55 55 55 55 56 55 55 54 0 0 0 0 27 27 27 27 27 27 27 27 27 27 27 27 27 27 27 27 27 26 26 27 27 27 27 27 26 27 27 27 26 26 27 27 0 26 26 26 27 26 26 26 26 26 26 26 26 26 26 26 26 26 26 26 26 26 26 26 26 26 26 26 26 26 26 26 26 26 26 26 26 26 26 27 26 26 26 26 26 26 26 37 26 26 26 26
    0 0 0 0 0 0 0 0 0 0 0 0 0 1 1 1 2 0 0 0 0 0 0 0 0 0 0 24 25 25 25 25 25 25 25 26 26 20 20 26 26 26 26 26 26 26 26 26 26 26 26 26 26 26 26 26 26 26 26 26 27 27 27 27 27 27 27 27 27 27 27 27 27 27 27 27 27 28 28 28 28 28 28 28 28 28 28 28 28 27 28 28 28 28 28 28 28 29 29 0 45 55 55 85 85 0 0 0 90 91 42 43 0 89 58 0 0 94 0 90 90 89 90 91 0 0 0 0 0 0 54 54 54 54 54 54 54 54 54 54 54 55 55 55 55 55 55 54 54 54 54 54 54 54 55 55 55 55 55 55 54 54 54 54 54 54 54 55 54 54 54 53 52 53 53 54 55 56 56 56 48 49 51 52 52 53 54 54 55 67 67 68 68 62 62 63 65 66 43 44 45 46 47 47 48 48 48 48 49 49 50 51 51 51 51 51 49 49 0 0 0 0 0 0 32 33 33 33 33 39 40 0 0 33 33 33 33 33 33 33 33 33 33 33 33 33 33 33 33 33 33 33 33 33 33 33 33 33 33 33 33 34 34 34 34 33 33 33 33 33 33 33 33 33 33 33 33 33 33 33 33 33 33 33 33 33 33 33 33 33 33 33 33 33 33 33 33 33 33 33 34 0 34 33 34 34 34 34 34 34 34 34 34 34 34 34 34 34 34 34 34 33 33 34 34 34 34 34 34 33 33 33 33 33 33 33 33 33 33 34 34 34 33 33 33 0 0 0 0 0 0 0 0 0 0 0 0 0 0 0 0 0 0 0 0 0 0 0 0 0 55 55 55 55 55 55 55 55 55 55 55 55 56 56 56 56 56 56 56 56 56 56 56 56 56 57 57 57 57 57 57 57 57 57 57 57 57 57 58 55 55 54 54 54 54 54 54 53 0 0 0 0 0 0 46 46 35 36 37 38 39 40 41 41 42 56 57 46 47 48 0 0 0 0 0 0 0 0 0 0 0 0 0 58 58 58 59 59 60 60 60 61 61 62 62 62 62 0 0 0 63 63 63 63 62 62 62 61 61 63 63 63 64 0 28 28 28 28 28 28 29 29 28 28 28 28 28 28 28 28 28 0 0 0 0 0 0 0 0 0 0 0 0 0 5 0 44 0 0 0 0 12 0 51 52 53 54 55 55 53 54 51 52 53 54 54 55 55 55 55 55 55 55 55 55 55 56 57 58 55 56 54 0 0 0 0 27 27 27 27 27 27 27 27 27 26 27 27 27 27 27 27 27 27 27 27 27 27 27 27 27 27 27 27 27 26 26 27 27 27 26 26 26 27 26 26 26 26 26 26 26 26 26 27 27 26 26 26 26 26 26 26 26 26 26 26 26 26 27 26 27 27 26 26 26 26 0 26 26 26 26 26 26 26 26 26 26 26 26 26 26
    0 0 0 0 0 0 0 0 0 0 0 0 0 1 1 2 0 0 0 0 0 0 5 0 0 0 0 24 25 25 25 25 25 25 25 26 20 20 20 20 26 26 26 26 26 26 26 26 26 26 26 26 26 26 27 26 26 26 26 27 27 27 27 27 27 27 27 27 27 27 27 27 27 27 27 27 27 27 27 27 27 28 28 28 28 28 28 27 28 28 28 28 28 28 28 28 28 28 28 28 29 29 55 85 35 35 35 53 90 96 91 0 89 89 90 90 90 90 90 90 90 90 90 91 92 92 0 0 0 0 0 0 0 0 0 52 52 53 53 53 53 54 54 55 55 55 54 54 54 54 54 54 55 55 55 55 55 55 55 54 54 54 54 54 54 53 54 54 54 54 54 55 53 58 58 59 55 56 56 56 56 56 56 53 53 53 53 52 53 53 54 54 55 56 57 58 66 67 68 69 70 70 71 46 47 47 47 47 48 48 49 48 49 49 50 48 52 50 50 50 50 50 50 50 51 52 53 53 0 0 0 0 0 32 33 33 33 33 33 33 33 33 33 33 33 33 33 33 33 33 33 33 33 33 33 33 33 33 33 33 33 34 34 34 34 34 34 33 34 33 33 33 33 33 33 34 34 33 33 33 33 33 33 33 33 33 33 33 33 33 33 33 33 33 33 33 33 33 33 33 34 0 34 33 34 34 34 34 34 34 34 34 34 34 34 34 34 34 34 34 34 34 34 34 34 34 34 34 34 34 34 33 33 33 33 33 33 33 33 33 34 33 33 33 0 0 0 0 0 0 0 0 0 0 0 0 0 0 0 0 0 0 0 0 0 0 0 0 0 0 55 55 55 55 55 55 55 55 55 55 55 55 55 56 56 56 56 56 56 56 56 56 56 56 56 57 57 57 57 57 57 57 57 57 57 57 57 57 58 55 55 54 54 54 54 54 54 53 0 0 0 0 0 46 40 41 42 43 44 46 47 41 42 43 50 52 47 48 49 0 0 0 0 0 0 0 0 0 0 0 0 58 58 58 58 59 59 60 60 60 61 61 62 62 62 62 0 62 62 62 62 62 62 62 62 62 60 61 62 62 63 63 28 28 28 28 28 28 28 28 28 28 28 28 28 28 28 28 28 28 28 0 0 0 0 0 0 0 0 0 0 0 0 0 0 0 0 0 0 0 0 0 0 51 52 54 54 54 54 53 54 54 54 55 55 55 55 55 55 55 55 55 55 55 55 55 56 53 54 54 54 0 0 0 27 27 27 27 27 27 27 27 27 27 27 26 27 27 27 27 27 27 27 27 27 27 27 27 27 27 78 26 0 0 27 26 26 26 26 27 26 26 26 32 27 32 26 26 26 26 26 26 26 26 26 26 26 26 26 26 26 26 26 26 26 26 26 26 26 26 26 92 27 26 26 26 26 26 60 26 26 26 26 26 26 26 63 27 69 26 26
    0 0 0 0 0 0 0 0 0 0 0 0 0 0 2 2 0 0 0 0 0 0 5 0 0 0 23 24 25 25 25 25 25 25 26 26 20 20 26 20 26 26 26 26 26 26 26 26 26 26 26 26 26 26 27 26 26 26 26 27 27 27 27 27 27 27 27 27 27 27 27 27 27 27 27 27 27 28 28 27 28 28 28 28 28 28 27 28 28 28 28 28 28 28 28 28 28 28 28 28 28 28 28 28 34 34 35 41 34 34 0 0 0 0 0 90 90 90 90 90 90 90 90 91 92 93 0 0 0 0 0 0 0 0 0 0 0 53 53 53 53 54 54 54 55 54 54 54 54 54 55 55 55 55 55 55 55 55 55 54 54 54 54 54 54 54 54 54 54 54 54 54 54 55 55 55 56 56 56 56 56 56 56 56 55 54 53 52 52 22 53 54 55 56 57 58 66 67 68 68 57 57 58 59 60 62 63 41 42 43 44 45 48 49 47 47 52 51 50 50 50 50 50 51 51 52 52 53 50 51 52 55 56 0 33 33 33 33 33 33 33 33 33 33 33 33 34 33 33 33 33 33 33 33 33 33 33 33 33 33 33 33 34 34 34 34 34 34 34 34 33 33 33 33 33 34 34 34 33 33 33 33 33 33 33 33 33 33 33 33 33 33 33 33 33 33 33 33 34 33 33 33 34 33 34 34 34 34 34 34 34 34 34 34 34 34 34 34 34 34 34 34 34 34 34 34 34 34 34 34 34 34 33 33 33 33 33 33 34 33 33 33 33 33 0 0 0 0 0 0 0 0 0 0 0 0 0 0 0 0 0 0 0 0 0 0 52 0 0 54 55 55 55 55 54 55 55 55 55 55 55 55 55 55 56 56 56 56 56 56 56 56 56 56 56 56 57 57 57 57 57 57 57 57 57 57 57 57 58 55 55 53 54 54 55 54 53 53 0 0 0 0 46 40 41 42 43 44 45 46 47 48 48 50 51 48 48 49 0 0 0 0 0 0 0 0 0 0 0 0 58 58 58 58 59 59 60 60 60 61 61 62 62 62 62 62 62 62 62 62 62 62 61 61 60 61 62 0 0 0 0 28 28 28 28 28 28 28 28 28 28 28 28 28 28 28 28 28 0 64 69 69 0 0 0 0 0 6 7 8 8 0 0 0 0 0 0 0 18 17 17 17 47 58 58 53 54 53 53 53 54 54 54 55 55 55 55 55 55 55 55 55 54 54 55 55 56 53 54 54 0 0 0 26 27 27 27 27 27 27 27 27 26 26 26 26 27 27 27 27 27 27 27 27 27 27 27 27 27 26 79 26 0 0 27 85 21 21 26 27 26 26 26 26 26 26 33 26 26 26 26 26 26 26 26 26 26 26 26 27 27 27 26 26 26 26 26 26 26 26 26 92 0 27 26 26 26 26 60 60 26 26 26 26 26 26 63 63 63 26 26
    0 0 0 0 0 0 0 0 0 0 0 0 0 0 0 0 3 0 0 0 0 5 0 0 0 0 0 0 25 25 25 25 25 25 25 26 26 26 26 26 26 26 26 26 26 26 26 26 26 26 26 26 26 26 27 27 26 26 26 27 27 27 27 27 27 27 27 27 27 27 27 27 27 27 27 27 27 27 28 28 28 28 28 28 28 28 28 28 28 28 28 28 28 28 28 28 28 28 28 28 28 28 28 28 28 34 34 34 34 34 0 0 0 0 43 90 0 0 0 0 91 91 91 91 92 93 94 94 0 0 0 0 91 0 0 0 0 0 0 0 0 54 54 54 54 54 54 54 54 54 54 55 55 55 55 55 55 55 55 55 54 54 54 54 54 54 54 54 54 54 54 54 54 54 54 55 55 56 56 56 57 57 56 56 55 54 54 53 52 52 53 54 55 56 57 58 59 60 61 62 63 63 64 65 66 67 67 68 69 70 70 70 71 72 73 48 48 49 50 50 50 50 50 50 50 50 50 50 50 51 51 50 51 0 0 0 0 0 33 33 33 33 33 33 33 33 34 33 33 33 33 33 33 33 33 33 33 33 33 33 33 33 34 34 34 34 34 34 34 34 34 34 34 34 33 34 34 34 33 33 33 33 33 33 33 33 33 34 34 34 33 33 33 33 33 33 34 34 33 33 33 33 34 34 34 34 34 34 34 34 34 34 34 34 34 34 34 34 34 34 34 34 34 34 34 34 34 34 34 34 34 34 34 33 33 33 33 34 34 33 33 33 33 0 0 0 0 0 0 0 0 0 0 0 0 0 0 0 0 0 0 0 0 0 0 0 52 0 0 0 54 55 55 55 55 55 55 55 55 55 55 55 55 56 56 56 56 56 55 56 56 56 56 55 56 56 56 56 56 56 57 57 57 57 57 57 57 57 58 55 55 53 54 54 55 54 53 53 0 0 0 46 46 47 48 49 50 44 43 43 47 48 56 48 48 49 0 0 0 0 0 0 0 0 0 0 0 0 58 58 58 58 58 59 59 59 60 60 61 61 61 62 62 62 62 62 62 62 62 62 62 59 60 60 61 0 0 32 32 28 28 28 28 28 28 28 28 28 28 28 28 28 28 28 28 28 28 71 0 0 0 0 0 32 0 0 0 0 0 7 0 0 0 0 0 16 17 18 18 18 0 0 48 49 52 53 53 53 53 54 54 54 55 55 55 55 55 55 55 55 55 54 54 54 55 55 53 54 54 0 0 0 0 27 27 27 27 27 27 27 27 27 27 26 25 25 26 27 27 27 27 27 27 27 27 27 27 27 27 27 27 26 27 27 27 27 26 26 21 20 20 32 26 26 26 33 33 33 26 26 26 26 26 26 26 26 26 26 27 27 27 27 26 26 26 26 26 27 26 26 26 91 0 0 27 26 26 26 26 26 26 17 26 26 26 26 63 27 26 26 26</data></Disparity>
</opencv_storage>
